# .PCD v0.7 - Point Cloud Data file format
VERSION 0.7
FIELDS x y z
SIZE 4 4 4
TYPE F F F
COUNT 1 1 1
WIDTH 1395
HEIGHT 1
VIEWPOINT 0 0 0 1 0 0 0
POINTS 1395
DATA ascii
0.045794081 0.1174381 -0.79000002
0.047286436 0.1174381 -0.79000002
0.048655294 0.11714078 -0.78799999
0.050080236 0.11699213 -0.787
0.051566925 0.11699213 -0.787
0.052918788 0.11669482 -0.78500003
0.054401696 0.11669482 -0.78500003
0.055884603 0.11669482 -0.78500003
0.057367511 0.11669482 -0.78500003
0.058850419 0.11669482 -0.78500003
0.060333326 0.11669482 -0.78500003
0.061816234 0.11669482 -0.78500003
0.06346041 0.11699213 -0.787
0.064947098 0.11699213 -0.787
0.066518195 0.11714078 -0.78799999
0.068006776 0.11714078 -0.78799999
0.06949535 0.11714078 -0.78799999
0.071164086 0.1174381 -0.79000002
0.072656445 0.1174381 -0.79000002
0.0073204101 0.12140863 -0.82700002
0.0088826586 0.12140863 -0.82700002
0.010419646 0.12111501 -0.82499999
0.011949079 0.1208214 -0.82300001
0.013470955 0.12052779 -0.82099998
0.014985275 0.12023418 -0.81900001
0.016532412 0.12023418 -0.81900001
0.018079547 0.12023418 -0.81900001
0.019578753 0.11994056 -0.81699997
0.021070406 0.11964695 -0.815
0.022554502 0.11935335 -0.81300002
0.024090303 0.11935335 -0.81300002
0.025563063 0.11905973 -0.81099999
0.027095087 0.11905973 -0.81099999
0.028556513 0.11876612 -0.80900002
0.030010382 0.1184725 -0.80699998
0.031456698 0.1181789 -0.80500001
0.032977387 0.1181789 -0.80500001
0.034412365 0.11788528 -0.80299997
0.035839789 0.11759167 -0.801
0.03730629 0.11744487 -0.80000001
0.038720489 0.11715125 -0.79799998
0.040227953 0.11715125 -0.79799998
0.041630819 0.11685764 -0.796
0.043026131 0.11656403 -0.79400003
0.044526041 0.11656403 -0.79400003
0.045910016 0.11627042 -0.792
0.047286436 0.1159768 -0.79000002
0.048655294 0.11568319 -0.78799999
0.050143871 0.11568319 -0.78799999
0.051566925 0.11553638 -0.787
0.05305361 0.11553638 -0.787
0.054540295 0.11553638 -0.787
0.055884603 0.11524277 -0.78500003
0.057367511 0.11524277 -0.78500003
0.058850419 0.11524277 -0.78500003
0.060333326 0.11524277 -0.78500003
0.061973725 0.11553638 -0.787
0.06346041 0.11553638 -0.787
0.065029621 0.11568319 -0.78799999
0.066518195 0.11568319 -0.78799999
0.068006776 0.11568319 -0.78799999
0.069671735 0.1159768 -0.79000002
0.071164086 0.1159768 -0.79000002
0.072656445 0.1159768 -0.79000002
0.0057860119 0.12045871 -0.83099997
0.0073381132 0.12016881 -0.829
0.0088826586 0.1198789 -0.82700002
0.010444907 0.1198789 -0.82700002
0.011978117 0.11958898 -0.82499999
0.013503771 0.11929907 -0.82300001
0.015021869 0.11900915 -0.82099998
0.016532412 0.11871924 -0.81900001
0.018079547 0.11871924 -0.81900001
0.019626683 0.11871924 -0.81900001
0.021122111 0.11842933 -0.81699997
0.022609985 0.11813942 -0.815
0.024090303 0.11784951 -0.81300002
0.025626104 0.11784951 -0.81300002
0.027095087 0.11755959 -0.81099999
0.028627109 0.11755959 -0.81099999
0.030084759 0.11726968 -0.80900002
0.031534851 0.11697976 -0.80699998
0.032977387 0.11668985 -0.80500001
0.034412365 0.11639994 -0.80299997
0.035929274 0.11639994 -0.80299997
0.037352923 0.11611003 -0.801
0.038817532 0.11596508 -0.80000001
0.040227953 0.11567515 -0.79799998
0.041735418 0.11567515 -0.79799998
0.043134507 0.11538525 -0.796
0.044526041 0.11509534 -0.79400003
0.04602595 0.11509534 -0.79400003
0.047406144 0.11480542 -0.792
0.048778787 0.11451551 -0.79000002
0.050143871 0.1142256 -0.78799999
0.051632445 0.1142256 -0.78799999
0.053121023 0.1142256 -0.78799999
0.054540295 0.11408064 -0.787
0.05602698 0.11408064 -0.787
0.057513669 0.11408064 -0.787
0.059000354 0.11408064 -0.787
0.060487039 0.11408064 -0.787
0.061973725 0.11408064 -0.787
0.063541047 0.1142256 -0.78799999
0.065029621 0.1142256 -0.78799999
0.066518195 0.1142256 -0.78799999
0.068179384 0.11451551 -0.79000002
0.069671735 0.11451551 -0.79000002
0.071164086 0.11451551 -0.79000002
0.072656445 0.11451551 -0.79000002
0.074336514 0.11480542 -0.792
0.0057860119 0.11892158 -0.83099997
0.0073381132 0.11863537 -0.829
0.0089041395 0.11863537 -0.829
0.010444907 0.11834916 -0.82700002
0.012007155 0.11834916 -0.82700002
0.013503771 0.11777673 -0.82300001
0.015021869 0.11749052 -0.82099998
0.016532412 0.1172043 -0.81900001
0.018079547 0.1172043 -0.81900001
0.019626683 0.1172043 -0.81900001
0.021122111 0.11691809 -0.81699997
0.022609985 0.11663188 -0.815
0.024090303 0.11634567 -0.81300002
0.025626104 0.11634567 -0.81300002
0.027095087 0.11605945 -0.81099999
0.028627109 0.11605945 -0.81099999
0.030084759 0.11577324 -0.80900002
0.031534851 0.11548702 -0.80699998
0.032977387 0.11520081 -0.80500001
0.034498077 0.11520081 -0.80500001
0.035929274 0.1149146 -0.80299997
0.037446186 0.1149146 -0.80299997
0.038866054 0.11462838 -0.801
0.040328778 0.11448528 -0.80000001
0.041735418 0.11419906 -0.79799998
0.043134507 0.11391285 -0.796
0.044638198 0.11391285 -0.796
0.04602595 0.11362664 -0.79400003
0.047406144 0.11334042 -0.792
0.048778787 0.11305422 -0.79000002
0.050271142 0.11305422 -0.79000002
0.051632445 0.11276799 -0.78799999
0.053121023 0.11276799 -0.78799999
0.054609597 0.11276799 -0.78799999
0.05602698 0.11262489 -0.787
0.057513669 0.11262489 -0.787
0.059000354 0.11262489 -0.787
0.060487039 0.11262489 -0.787
0.062052473 0.11276799 -0.78799999
0.063541047 0.11276799 -0.78799999
0.065029621 0.11276799 -0.78799999
0.066687025 0.11305422 -0.79000002
0.068179384 0.11305422 -0.79000002
0.069671735 0.11305422 -0.79000002
0.071164086 0.11305422 -0.79000002
0.072656445 0.11305422 -0.79000002
0.074148796 0.11305422 -0.79000002
0.0042365021 0.11794947 -0.83499998
0.0057999375 0.11766696 -0.833
0.0073558167 0.11738444 -0.83099997
0.0089041395 0.11710194 -0.829
0.010470166 0.11710194 -0.829
0.012007155 0.11681943 -0.82700002
0.013536587 0.11653691 -0.82499999
0.015058463 0.1162544 -0.82300001
0.016572783 0.11597188 -0.82099998
0.018079547 0.11568937 -0.81900001
0.019626683 0.11568937 -0.81900001
0.021173818 0.11568937 -0.81900001
0.022665469 0.11540685 -0.81699997
0.024149565 0.11512434 -0.815
0.025626104 0.11484183 -0.81300002
0.027161906 0.11484183 -0.81300002
0.028627109 0.11455931 -0.81099999
0.030159133 0.11455931 -0.81099999
0.031613003 0.1142768 -0.80900002
0.033059318 0.11399428 -0.80699998
0.034498077 0.11371177 -0.80500001
0.036018763 0.11371177 -0.80500001
0.037446186 0.11342926 -0.80299997
0.038866054 0.11314674 -0.801
0.040328778 0.11300549 -0.80000001
0.041735418 0.11272297 -0.79799998
0.043242887 0.11272297 -0.79799998
0.044638198 0.11244046 -0.796
0.046141885 0.11244046 -0.796
0.04752586 0.11215795 -0.79400003
0.048902277 0.11187543 -0.792
0.050271142 0.11159292 -0.79000002
0.051763494 0.11159292 -0.79000002
0.053121023 0.1113104 -0.78799999
0.054609597 0.1113104 -0.78799999
0.056098171 0.1113104 -0.78799999
0.057586748 0.1113104 -0.78799999
0.059075322 0.1113104 -0.78799999
0.060563896 0.1113104 -0.78799999
0.062052473 0.1113104 -0.78799999
0.063541047 0.1113104 -0.78799999
0.065029621 0.1113104 -0.78799999
0.066687025 0.11159292 -0.79000002
0.068179384 0.11159292 -0.79000002
0.069671735 0.11159292 -0.79000002
0.071344249 0.11187543 -0.792
0.072840378 0.11187543 -0.792
0.074148796 0.11159292 -0.79000002
0.075641148 0.11159292 -0.79000002
0.0042365021 0.11640494 -0.83499998
0.0058138631 0.11640494 -0.83499998
0.0073735202 0.11612613 -0.833
0.0089256214 0.11584731 -0.83099997
0.010470166 0.1155685 -0.829
0.012036192 0.1155685 -0.829
0.013569403 0.11528969 -0.82700002
0.015095057 0.11501087 -0.82499999
0.016613156 0.11473206 -0.82300001
0.018123697 0.11445324 -0.82099998
0.019626683 0.11417443 -0.81900001
0.021173818 0.11417443 -0.81900001
0.022665469 0.11389561 -0.81699997
0.024149565 0.1136168 -0.815
0.025626104 0.11333799 -0.81300002
0.027161906 0.11333799 -0.81300002
0.028627109 0.11305917 -0.81099999
0.030159133 0.11305917 -0.81099999
0.031613003 0.11278036 -0.80900002
0.033141248 0.11278036 -0.80900002
0.034583785 0.11250154 -0.80699998
0.036018763 0.11222273 -0.80500001
0.037539452 0.11222273 -0.80500001
0.038963098 0.11194392 -0.80299997
0.040379189 0.1116651 -0.801
0.041840021 0.1115257 -0.80000001
0.043242887 0.11124688 -0.79799998
0.044750351 0.11124688 -0.79799998
0.046141885 0.11096807 -0.796
0.047645573 0.11096807 -0.796
0.04902577 0.11068925 -0.79400003
0.050398409 0.11041044 -0.792
0.051763494 0.11013163 -0.79000002
0.053255849 0.11013163 -0.79000002
0.0547482 0.11013163 -0.79000002
0.056098171 0.10985281 -0.78799999
0.057586748 0.10985281 -0.78799999
0.059075322 0.10985281 -0.78799999
0.060563896 0.10985281 -0.78799999
0.062052473 0.10985281 -0.78799999
0.063541047 0.10985281 -0.78799999
0.065029621 0.10985281 -0.78799999
0.066687025 0.11013163 -0.79000002
0.068179384 0.11013163 -0.79000002
0.069671735 0.11013163 -0.79000002
0.071344249 0.11041044 -0.792
0.072840378 0.11041044 -0.792
0.074148796 0.11013163 -0.79000002
0.075641148 0.11013163 -0.79000002
0.0042365021 0.11486041 -0.83499998
0.0058138631 0.11486041 -0.83499998
0.0073912237 0.11486041 -0.83499998
0.0089471033 0.1145853 -0.833
0.010495425 0.11431018 -0.83099997
0.012036192 0.11403506 -0.829
0.013569403 0.11375996 -0.82700002
0.015131651 0.11375996 -0.82700002
0.016613156 0.11320972 -0.82300001
0.018123697 0.1129346 -0.82099998
0.01967461 0.1129346 -0.82099998
0.021173818 0.11265949 -0.81900001
0.022720955 0.11265949 -0.81900001
0.024208827 0.11238437 -0.81699997
0.025689144 0.11210926 -0.815
0.027161906 0.11183415 -0.81300002
0.028697709 0.11183415 -0.81300002
0.030159133 0.11155903 -0.81099999
0.031691156 0.11155903 -0.81099999
0.033141248 0.11128392 -0.80900002
0.034583785 0.1110088 -0.80699998
0.036108252 0.1110088 -0.80699998
0.037539452 0.11073369 -0.80500001
0.039060142 0.11073369 -0.80500001
0.04048001 0.11045857 -0.80299997
0.04189232 0.11018346 -0.801
0.043351267 0.1100459 -0.80000001
0.044750351 0.10977078 -0.79799998
0.046257816 0.10977078 -0.79799998
0.047645573 0.10949567 -0.796
0.04914926 0.10949567 -0.796
0.05052568 0.10922056 -0.79400003
0.051894542 0.10894544 -0.792
0.053255849 0.10867033 -0.79000002
0.0547482 0.10867033 -0.79000002
0.056240555 0.10867033 -0.79000002
0.057586748 0.10839521 -0.78799999
0.059075322 0.10839521 -0.78799999
0.060563896 0.10839521 -0.78799999
0.062052473 0.10839521 -0.78799999
0.063541047 0.10839521 -0.78799999
0.065029621 0.10839521 -0.78799999
0.066687025 0.10867033 -0.79000002
0.068179384 0.10867033 -0.79000002
0.069671735 0.10867033 -0.79000002
0.071164086 0.10867033 -0.79000002
0.072840378 0.10894544 -0.792
0.074148796 0.10867033 -0.79000002
0.075641148 0.10867033 -0.79000002
0.077133499 0.10867033 -0.79000002
0.0026718799 0.11385871 -0.83899999
0.0042466498 0.1135873 -0.83700001
0.0058138631 0.11331587 -0.83499998
0.0073912237 0.11331587 -0.83499998
0.0089471033 0.11304446 -0.833
0.010495425 0.11277305 -0.83099997
0.012036192 0.11250163 -0.829
0.013569403 0.11223022 -0.82700002
0.015131651 0.11223022 -0.82700002
0.016653527 0.1119588 -0.82499999
0.018167848 0.11168738 -0.82300001
0.01967461 0.11141597 -0.82099998
0.021225525 0.11141597 -0.82099998
0.022720955 0.11114456 -0.81900001
0.024208827 0.11087313 -0.81699997
0.025689144 0.11060172 -0.815
0.027228724 0.11060172 -0.815
0.028697709 0.11033031 -0.81300002
0.03023351 0.11033031 -0.81300002
0.031691156 0.1100589 -0.81099999
0.033223178 0.1100589 -0.81099999
0.034669496 0.10978748 -0.80900002
0.036108252 0.10951606 -0.80699998
0.037539452 0.10924465 -0.80500001
0.039060142 0.10924465 -0.80500001
0.04048001 0.10897323 -0.80299997
0.04189232 0.10870182 -0.801
0.043405455 0.10870182 -0.801
0.044862509 0.10856611 -0.80000001
0.046257816 0.10829469 -0.79799998
0.047765281 0.10829469 -0.79799998
0.04914926 0.10802328 -0.796
0.050652947 0.10802328 -0.796
0.05202559 0.10775187 -0.79400003
0.053390671 0.10748045 -0.792
0.0547482 0.10720903 -0.79000002
0.056240555 0.10720903 -0.79000002
0.05773291 0.10720903 -0.79000002
0.059075322 0.10693762 -0.78799999
0.060563896 0.10693762 -0.78799999
0.062052473 0.10693762 -0.78799999
0.063541047 0.10693762 -0.78799999
0.065029621 0.10693762 -0.78799999
0.066518195 0.10693762 -0.78799999
0.068179384 0.10720903 -0.79000002
0.069671735 0.10720903 -0.79000002
0.071164086 0.10720903 -0.79000002
0.072656445 0.10720903 -0.79000002
0.074148796 0.10720903 -0.79000002
0.075641148 0.10720903 -0.79000002
0.077133499 0.10720903 -0.79000002
0.004256797 0.11230677 -0.83899999
0.0058277887 0.11203906 -0.83700001
0.0074089277 0.11203906 -0.83700001
0.0089685842 0.11177134 -0.83499998
0.010520685 0.11150363 -0.833
0.01206523 0.11123591 -0.83099997
0.013602219 0.11096819 -0.829
0.015131651 0.11070048 -0.82700002
0.016693899 0.11070048 -0.82700002
0.018211998 0.11043277 -0.82499999
0.01972254 0.11016505 -0.82300001
0.021225525 0.10989733 -0.82099998
0.022776438 0.10989733 -0.82099998
0.024268091 0.10962962 -0.81900001
0.025752185 0.1093619 -0.81699997
0.027228724 0.10909419 -0.815
0.028768305 0.10909419 -0.815
0.03023351 0.10882647 -0.81300002
0.031769309 0.10882647 -0.81300002
0.033223178 0.10855875 -0.81099999
0.034755204 0.10855875 -0.81099999
0.036197741 0.10829104 -0.80900002
0.037632719 0.10802332 -0.80699998
0.039060142 0.10775561 -0.80500001
0.040580831 0.10775561 -0.80500001
0.041996919 0.10748789 -0.80299997
0.043405455 0.10722017 -0.801
0.044862509 0.10708632 -0.80000001
0.046257816 0.1068186 -0.79799998
0.047765281 0.1068186 -0.79799998
0.04914926 0.10655089 -0.796
0.050652947 0.10655089 -0.796
0.05202559 0.10628317 -0.79400003
0.053390671 0.10601545 -0.792
0.0547482 0.10574774 -0.79000002
0.056240555 0.10574774 -0.79000002
0.05773291 0.10574774 -0.79000002
0.059075322 0.10548002 -0.78799999
0.060563896 0.10548002 -0.78799999
0.062052473 0.10548002 -0.78799999
0.063541047 0.10548002 -0.78799999
0.065029621 0.10548002 -0.78799999
0.066518195 0.10548002 -0.78799999
0.068006776 0.10548002 -0.78799999
0.069671735 0.10574774 -0.79000002
0.071164086 0.10574774 -0.79000002
0.072656445 0.10574774 -0.79000002
0.074148796 0.10574774 -0.79000002
0.075641148 0.10574774 -0.79000002
0.077133499 0.10574774 -0.79000002
0.004256797 0.11075484 -0.83899999
0.0058417139 0.11075484 -0.83899999
0.0074089277 0.11049083 -0.83700001
0.0089900661 0.11049083 -0.83700001
0.010545945 0.11022681 -0.83499998
0.012094269 0.1099628 -0.833
0.013635035 0.10969877 -0.83099997
0.015168245 0.10943476 -0.829
0.016693899 0.10917075 -0.82700002
0.018256148 0.10917075 -0.82700002
0.019770468 0.10890673 -0.82499999
0.021277232 0.10864271 -0.82300001
0.022776438 0.10837869 -0.82099998
0.024268091 0.10811468 -0.81900001
0.025815226 0.10811468 -0.81900001
0.027295543 0.10785066 -0.81699997
0.028768305 0.10758664 -0.815
0.03023351 0.10732263 -0.81300002
0.031769309 0.10732263 -0.81300002
0.033305112 0.10732263 -0.81300002
0.034755204 0.10705861 -0.81099999
0.036287226 0.10705861 -0.81099999
0.037725985 0.1067946 -0.80900002
0.039157186 0.10653058 -0.80699998
0.040580831 0.10626657 -0.80500001
0.041996919 0.10600255 -0.80299997
0.043513831 0.10600255 -0.80299997
0.044918586 0.10573854 -0.801
0.046373755 0.10560653 -0.80000001
0.047765281 0.10534251 -0.79799998
0.04927275 0.10534251 -0.79799998
0.050652947 0.1050785 -0.796
0.05202559 0.10481448 -0.79400003
0.0535255 0.10481448 -0.79400003
0.054886803 0.10455046 -0.792
0.056240555 0.10428645 -0.79000002
0.05773291 0.10428645 -0.79000002
0.059225261 0.10428645 -0.79000002
0.060563896 0.10402243 -0.78799999
0.062052473 0.10402243 -0.78799999
0.063541047 0.10402243 -0.78799999
0.065029621 0.10402243 -0.78799999
0.066518195 0.10402243 -0.78799999
0.068006776 0.10402243 -0.78799999
0.069671735 0.10428645 -0.79000002
0.071164086 0.10428645 -0.79000002
0.072656445 0.10428645 -0.79000002
0.074148796 0.10428645 -0.79000002
0.075641148 0.10428645 -0.79000002
0.077133499 0.10428645 -0.79000002
0.0042669442 0.10946323 -0.84100002
0.0058556395 0.10946323 -0.84100002
0.0074266307 0.10920291 -0.83899999
0.0089900661 0.1089426 -0.83700001
0.010571205 0.1089426 -0.83700001
0.012123306 0.10868227 -0.83499998
0.013667851 0.10842196 -0.833
0.015204839 0.10816164 -0.83099997
0.016734272 0.10790133 -0.829
0.018300299 0.10790133 -0.829
0.019818397 0.10764101 -0.82700002
0.021328937 0.1073807 -0.82499999
0.022831924 0.10712038 -0.82300001
0.024327353 0.10686006 -0.82099998
0.025815226 0.10659974 -0.81900001
0.027362362 0.10659974 -0.81900001
0.028838901 0.10633942 -0.81699997
0.030307883 0.10607911 -0.815
0.031769309 0.10581879 -0.81300002
0.033305112 0.10581879 -0.81300002
0.034755204 0.10555848 -0.81099999
0.036287226 0.10555848 -0.81099999
0.037725985 0.10529816 -0.80900002
0.039157186 0.10503784 -0.80699998
0.040580831 0.10477753 -0.80500001
0.042101521 0.10477753 -0.80500001
0.043513831 0.10451721 -0.80299997
0.044918586 0.10425689 -0.801
0.04643172 0.10425689 -0.801
0.047884997 0.10412674 -0.80000001
0.04927275 0.10386641 -0.79799998
0.050652947 0.1036061 -0.796
0.052156635 0.1036061 -0.796
0.0535255 0.10334579 -0.79400003
0.05502541 0.10334579 -0.79400003
0.056382935 0.10308547 -0.792
0.05773291 0.10282515 -0.79000002
0.059225261 0.10282515 -0.79000002
0.060717616 0.10282515 -0.79000002
0.062052473 0.10256483 -0.78799999
0.063541047 0.10256483 -0.78799999
0.065029621 0.10256483 -0.78799999
0.066518195 0.10256483 -0.78799999
0.068006776 0.10256483 -0.78799999
0.069671735 0.10282515 -0.79000002
0.071164086 0.10282515 -0.79000002
0.072656445 0.10282515 -0.79000002
0.074148796 0.10282515 -0.79000002
0.075641148 0.10282515 -0.79000002
0.077133499 0.10282515 -0.79000002
0.0042770915 0.10816421 -0.84299999
0.0058556395 0.1079076 -0.84100002
0.0074443347 0.1079076 -0.84100002
0.009011548 0.10765098 -0.83899999
0.010571205 0.10739437 -0.83700001
0.012152344 0.10739437 -0.83700001
0.013700667 0.10713774 -0.83499998
0.015241434 0.10688113 -0.833
0.016774643 0.10662451 -0.83099997
0.018300299 0.10636789 -0.829
0.019866325 0.10636789 -0.829
0.021380646 0.10611128 -0.82700002
0.022887409 0.10585466 -0.82499999
0.024386616 0.10559804 -0.82300001
0.025878267 0.10534142 -0.82099998
0.027362362 0.10508481 -0.81900001
0.028909499 0.10508481 -0.81900001
0.030382257 0.10482819 -0.81699997
0.031847462 0.10457157 -0.815
0.033305112 0.10431496 -0.81300002
0.034840915 0.10431496 -0.81300002
0.036287226 0.10405833 -0.81099999
0.037819251 0.10405833 -0.81099999
0.03925423 0.10380172 -0.80900002
0.040681653 0.1035451 -0.80699998
0.042101521 0.10328849 -0.80500001
0.043622211 0.10328849 -0.80500001
0.045030743 0.10303187 -0.80299997
0.04643172 0.10277525 -0.801
0.047884997 0.10264694 -0.80000001
0.049396239 0.10264694 -0.80000001
0.050780214 0.10239032 -0.79799998
0.052156635 0.10213371 -0.796
0.053660322 0.10213371 -0.796
0.05502541 0.10187709 -0.79400003
0.056382935 0.10162047 -0.792
0.057879064 0.10162047 -0.792
0.059225261 0.10136386 -0.79000002
0.060717616 0.10136386 -0.79000002
0.062052473 0.10110723 -0.78799999
0.063541047 0.10110723 -0.78799999
0.065029621 0.10110723 -0.78799999
0.066518195 0.10110723 -0.78799999
0.068006776 0.10110723 -0.78799999
0.069671735 0.10136386 -0.79000002
0.071164086 0.10136386 -0.79000002
0.072656445 0.10136386 -0.79000002
0.074148796 0.10136386 -0.79000002
0.075641148 0.10136386 -0.79000002
0.0042770915 0.10660488 -0.84299999
0.0058695646 0.10660488 -0.84299999
0.0074443347 0.10635197 -0.84100002
0.0090330299 0.10635197 -0.84100002
0.010596464 0.10609905 -0.83899999
0.012152344 0.10584613 -0.83700001
0.013733483 0.10584613 -0.83700001
0.015278027 0.10559321 -0.83499998
0.016815016 0.10534029 -0.833
0.018344449 0.10508737 -0.83099997
0.019866325 0.10483446 -0.829
0.021380646 0.10458154 -0.82700002
0.022942893 0.10458154 -0.82700002
0.024445878 0.10432862 -0.82499999
0.025878267 0.10382278 -0.82099998
0.02742918 0.10382278 -0.82099998
0.028909499 0.10356987 -0.81900001
0.030456634 0.10356987 -0.81900001
0.031925615 0.10331695 -0.81699997
0.033387043 0.10306403 -0.815
0.034840915 0.10281112 -0.81300002
0.036376715 0.10281112 -0.81300002
0.037819251 0.1025582 -0.81099999
0.039351273 0.1025582 -0.81099999
0.040782478 0.10230528 -0.80900002
0.04220612 0.10205236 -0.80699998
0.043622211 0.10179944 -0.80500001
0.0451429 0.10179944 -0.80500001
0.046547651 0.10154653 -0.80299997
0.047944851 0.10129361 -0.801
0.049396239 0.10116715 -0.80000001
0.050780214 0.10091423 -0.79799998
0.052287679 0.10091423 -0.79799998
0.053660322 0.10066132 -0.796
0.055164009 0.10066132 -0.796
0.056525316 0.1004084 -0.79400003
0.057879064 0.10015548 -0.792
0.059225261 0.099902563 -0.79000002
0.060717616 0.099902563 -0.79000002
0.062209968 0.099902563 -0.79000002
0.063541047 0.099649638 -0.78799999
0.065029621 0.099649638 -0.78799999
0.066518195 0.099649638 -0.78799999
0.068179384 0.099902563 -0.79000002
0.069671735 0.099902563 -0.79000002
0.071164086 0.099902563 -0.79000002
0.072656445 0.099902563 -0.79000002
0.074336514 0.10015548 -0.792
0.0042872392 0.10529477 -0.84500003
0.0058695646 0.10504555 -0.84299999
0.0074620377 0.10504555 -0.84299999
0.0090330299 0.10479634 -0.84100002
0.010621725 0.10479634 -0.84100002
0.012181382 0.10454711 -0.83899999
0.013733483 0.1042979 -0.83700001
0.015278027 0.10404868 -0.83499998
0.016855389 0.10404868 -0.83499998
0.018388599 0.10379946 -0.833
0.019914253 0.10355024 -0.83099997
0.021432351 0.10330103 -0.829
0.022942893 0.10305181 -0.82700002
0.024445878 0.10280258 -0.82499999
0.025941309 0.10255337 -0.82300001
0.02742918 0.10230415 -0.82099998
0.028980095 0.10230415 -0.82099998
0.030456634 0.10205493 -0.81900001
0.032003772 0.10205493 -0.81900001
0.033468973 0.10180571 -0.81699997
0.034926623 0.10155649 -0.815
0.036376715 0.10130728 -0.81300002
0.037912518 0.10130728 -0.81300002
0.039351273 0.10105806 -0.81099999
0.040782478 0.10080884 -0.80900002
0.04220612 0.10055962 -0.80699998
0.043622211 0.10031041 -0.80500001
0.0451429 0.10031041 -0.80500001
0.046547651 0.10006118 -0.80299997
0.048064563 0.10006118 -0.80299997
0.049457986 0.099811964 -0.801
0.050907485 0.09968736 -0.80000001
0.052287679 0.099438138 -0.79799998
0.053795144 0.099438138 -0.79799998
0.055164009 0.099188924 -0.796
0.056667697 0.099188924 -0.796
0.058025226 0.098939709 -0.79400003
0.059375197 0.09869048 -0.792
0.060717616 0.098441266 -0.79000002
0.062209968 0.098441266 -0.79000002
0.063702323 0.098441266 -0.79000002
0.065194674 0.098441266 -0.79000002
0.066687025 0.098441266 -0.79000002
0.068179384 0.098441266 -0.79000002
0.069671735 0.098441266 -0.79000002
0.071344249 0.09869048 -0.792
0.072840378 0.09869048 -0.792
0.074711949 0.099188924 -0.796
0.076407127 0.099438138 -0.79799998
0.0042872392 0.10373174 -0.84500003
0.0058834902 0.10373174 -0.84500003
0.0074620377 0.10348622 -0.84299999
0.0090545109 0.10348622 -0.84299999
0.010621725 0.10324071 -0.84100002
0.01221042 0.10324071 -0.84100002
0.013733483 0.10274967 -0.83700001
0.015314622 0.10274967 -0.83700001
0.016855389 0.10250414 -0.83499998
0.018388599 0.10225863 -0.833
0.019914253 0.1020131 -0.83099997
0.021432351 0.10176759 -0.829
0.022998378 0.10176759 -0.829
0.024505142 0.10152207 -0.82700002
0.026004348 0.10127655 -0.82499999
0.027496001 0.10103104 -0.82300001
0.028980095 0.10078551 -0.82099998
0.030531008 0.10078551 -0.82099998
0.032003772 0.10054 -0.81900001
0.033468973 0.10029447 -0.81699997
0.035012331 0.10029447 -0.81699997
0.036376715 0.09980344 -0.81300002
0.037912518 0.09980344 -0.81300002
0.039351273 0.099557921 -0.81099999
0.040883295 0.099557921 -0.81099999
0.042310722 0.099312402 -0.80900002
0.043730587 0.099066876 -0.80699998
0.0451429 0.098821364 -0.80500001
0.046547651 0.098575838 -0.80299997
0.048064563 0.098575838 -0.80299997
0.049457986 0.098330326 -0.801
0.050907485 0.098207563 -0.80000001
0.052287679 0.097962044 -0.79799998
0.053795144 0.097962044 -0.79799998
0.055164009 0.097716525 -0.796
0.056667697 0.097716525 -0.796
0.058025226 0.097471014 -0.79400003
0.059525136 0.097471014 -0.79400003
0.060871329 0.097225487 -0.792
0.062209968 0.096979976 -0.79000002
0.063702323 0.096979976 -0.79000002
0.065194674 0.096979976 -0.79000002
0.066687025 0.096979976 -0.79000002
0.068351984 0.097225487 -0.792
0.070024505 0.097471014 -0.79400003
0.071704574 0.097716525 -0.796
0.073208258 0.097716525 -0.796
0.074899666 0.097962044 -0.79799998
0.076407127 0.097962044 -0.79799998
0.078109875 0.098207563 -0.80000001
0.0042973864 0.10241053 -0.847
0.0058834902 0.10216872 -0.84500003
0.0074797417 0.10216872 -0.84500003
0.0090545109 0.10192689 -0.84299999
0.010646984 0.10192689 -0.84299999
0.01221042 0.10168508 -0.84100002
0.013766299 0.10144325 -0.83899999
0.015314622 0.10120144 -0.83700001
0.016855389 0.10095961 -0.83499998
0.018432749 0.10095961 -0.83499998
0.019962182 0.1007178 -0.833
0.021484056 0.10047597 -0.83099997
0.022998378 0.10023415 -0.829
0.024505142 0.099992335 -0.82700002
0.026067391 0.099992335 -0.82700002
0.027562819 0.099750511 -0.82499999
0.029050693 0.099508695 -0.82300001
0.030531008 0.099266872 -0.82099998
0.032081921 0.099266872 -0.82099998
0.033550907 0.099025056 -0.81900001
0.035012331 0.098783232 -0.81699997
0.036466204 0.098541416 -0.815
0.037912518 0.0982996 -0.81300002
0.039448317 0.0982996 -0.81300002
0.040883295 0.098057777 -0.81099999
0.042310722 0.097815961 -0.80900002
0.043730587 0.097574137 -0.80699998
0.0451429 0.097332321 -0.80500001
0.04666359 0.097332321 -0.80500001
0.048064563 0.097090498 -0.80299997
0.049581476 0.097090498 -0.80299997
0.050971117 0.096848682 -0.801
0.052418727 0.096727774 -0.80000001
0.053795144 0.09648595 -0.79799998
0.055302612 0.09648595 -0.79799998
0.056667697 0.096244134 -0.796
0.058171384 0.096244134 -0.796
0.059525136 0.096002318 -0.79400003
0.061025046 0.096002318 -0.79400003
0.062524959 0.096002318 -0.79400003
0.064024866 0.096002318 -0.79400003
0.065524772 0.096002318 -0.79400003
0.067024685 0.096002318 -0.79400003
0.068524592 0.096002318 -0.79400003
0.070200883 0.096244134 -0.796
0.071704574 0.096244134 -0.796
0.073392197 0.09648595 -0.79799998
0.074899666 0.09648595 -0.79799998
0.076407127 0.09648595 -0.79799998
0.078109875 0.096727774 -0.80000001
0.079621121 0.096727774 -0.80000001
0.0058974158 0.1008438 -0.847
0.0074797417 0.10060568 -0.84500003
0.0090759927 0.10060568 -0.84500003
0.010646984 0.10036756 -0.84299999
0.012239457 0.10036756 -0.84299999
0.013799115 0.10012944 -0.84100002
0.015351215 0.09989132 -0.83899999
0.016895762 0.099653199 -0.83700001
0.018432749 0.099415079 -0.83499998
0.02001011 0.099415079 -0.83499998
0.021535764 0.099176958 -0.833
0.023053862 0.098938838 -0.83099997
0.024564404 0.098700717 -0.829
0.026067391 0.098462604 -0.82700002
0.027629638 0.098462604 -0.82700002
0.029121289 0.098224476 -0.82499999
0.030605385 0.097986363 -0.82300001
0.032081921 0.097748235 -0.82099998
0.033632837 0.097748235 -0.82099998
0.035098042 0.097510122 -0.81900001
0.036555689 0.097271994 -0.81699997
0.03800578 0.097033881 -0.815
0.039448317 0.09679576 -0.81300002
0.04098412 0.09679576 -0.81300002
0.042415321 0.09655764 -0.81099999
0.043838967 0.096319519 -0.80900002
0.045255054 0.096081398 -0.80699998
0.04666359 0.095843285 -0.80500001
0.048184279 0.095843285 -0.80500001
0.049581476 0.095605157 -0.80299997
0.051098384 0.095605157 -0.80299997
0.052484252 0.095367044 -0.801
0.053929973 0.095247984 -0.80000001
0.055302612 0.095009856 -0.79799998
0.056810077 0.095009856 -0.79799998
0.058171384 0.094771743 -0.796
0.059675071 0.094771743 -0.796
0.061178759 0.094771743 -0.796
0.06268245 0.094771743 -0.796
0.064186133 0.094771743 -0.796
0.065689825 0.094771743 -0.796
0.067193508 0.094771743 -0.796
0.068697199 0.094771743 -0.796
0.070200883 0.094771743 -0.796
0.071884736 0.095009856 -0.79799998
0.073392197 0.095009856 -0.79799998
0.074899666 0.095009856 -0.79799998
0.076407127 0.095009856 -0.79799998
0.078109875 0.095247984 -0.80000001
0.079621121 0.095247984 -0.80000001
0.0074797417 0.099042654 -0.84500003
0.0090759927 0.099042654 -0.84500003
0.010646984 0.098808229 -0.84299999
0.012239457 0.098808229 -0.84299999
0.013799115 0.098573811 -0.84100002
0.015351215 0.098339386 -0.83899999
0.016895762 0.098104969 -0.83700001
0.0184769 0.098104969 -0.83700001
0.02001011 0.097870544 -0.83499998
0.021587471 0.097870544 -0.83499998
0.023109347 0.097636126 -0.833
0.024623666 0.097401701 -0.83099997
0.02613043 0.097167283 -0.829
0.027629638 0.096932866 -0.82700002
0.029121289 0.096698441 -0.82499999
0.030605385 0.096464023 -0.82300001
0.032160077 0.096464023 -0.82300001
0.033632837 0.096229598 -0.82099998
0.03518375 0.096229598 -0.82099998
0.036645178 0.09599518 -0.81900001
0.038099047 0.095760763 -0.81699997
0.039545361 0.095526345 -0.815
0.04098412 0.095291927 -0.81300002
0.042415321 0.095057502 -0.81099999
0.043947343 0.095057502 -0.81099999
0.045367211 0.094823085 -0.80900002
0.046779521 0.09458866 -0.80699998
0.048184279 0.094354242 -0.80500001
0.049704965 0.094354242 -0.80500001
0.051098384 0.094119817 -0.80299997
0.052484252 0.093885399 -0.801
0.053997383 0.093885399 -0.801
0.055441216 0.093768187 -0.80000001
0.056810077 0.093533769 -0.79799998
0.058317542 0.093533769 -0.79799998
0.059675071 0.093299352 -0.796
0.061178759 0.093299352 -0.796
0.06268245 0.093299352 -0.796
0.064186133 0.093299352 -0.796
0.065689825 0.093299352 -0.796
0.067193508 0.093299352 -0.796
0.068697199 0.093299352 -0.796
0.070377268 0.093533769 -0.79799998
0.071884736 0.093533769 -0.79799998
0.073392197 0.093533769 -0.79799998
0.074899666 0.093533769 -0.79799998
0.076407127 0.093533769 -0.79799998
0.078109875 0.093768187 -0.80000001
0.079621121 0.093768187 -0.80000001
0.08113236 0.093768187 -0.80000001
0.010646984 0.097248897 -0.84299999
0.012239457 0.097248897 -0.84299999
0.013799115 0.097018182 -0.84100002
0.015387811 0.097018182 -0.84100002
0.016936133 0.096787453 -0.83899999
0.0184769 0.096556738 -0.83700001
0.02005804 0.096556738 -0.83700001
0.021587471 0.096326008 -0.83499998
0.023164831 0.096326008 -0.83499998
0.02468293 0.096095294 -0.833
0.02613043 0.09563385 -0.829
0.027629638 0.095403135 -0.82700002
0.029191887 0.095403135 -0.82700002
0.030679759 0.095172405 -0.82499999
0.032160077 0.094941691 -0.82300001
0.033714768 0.094941691 -0.82300001
0.03518375 0.094710968 -0.82099998
0.036645178 0.094480246 -0.81900001
0.038099047 0.094249524 -0.81699997
0.039642405 0.094249524 -0.81699997
0.04098412 0.093788087 -0.81300002
0.042519923 0.093788087 -0.81300002
0.043947343 0.093557358 -0.81099999
0.045479368 0.093557358 -0.81099999
0.046895459 0.093326643 -0.80900002
0.048303988 0.093095921 -0.80699998
0.049704965 0.092865199 -0.80500001
0.051225655 0.092865199 -0.80500001
0.052615296 0.092634477 -0.80299997
0.053997383 0.092403755 -0.801
0.055441216 0.092288397 -0.80000001
0.056952462 0.092288397 -0.80000001
0.058317542 0.092057675 -0.79799998
0.059825007 0.092057675 -0.79799998
0.061332475 0.092057675 -0.79799998
0.06268245 0.091826953 -0.796
0.064186133 0.091826953 -0.796
0.065689825 0.091826953 -0.796
0.067193508 0.091826953 -0.796
0.068697199 0.091826953 -0.796
0.070377268 0.092057675 -0.79799998
0.071884736 0.092057675 -0.79799998
0.073392197 0.092057675 -0.79799998
0.074899666 0.092057675 -0.79799998
0.076407127 0.092057675 -0.79799998
0.078109875 0.092288397 -0.80000001
0.079621121 0.092288397 -0.80000001
0.08113236 0.092288397 -0.80000001
0.015387811 0.095462546 -0.84100002
0.016936133 0.095235519 -0.83899999
0.0184769 0.095008507 -0.83700001
0.02005804 0.095008507 -0.83700001
0.021639178 0.095008507 -0.83700001
0.023164831 0.094781481 -0.83499998
0.02468293 0.094554462 -0.833
0.02619347 0.094327435 -0.83099997
0.027696457 0.094100416 -0.829
0.029191887 0.093873397 -0.82700002
0.030754136 0.093873397 -0.82700002
0.03223823 0.09364637 -0.82499999
0.033714768 0.093419351 -0.82300001
0.035269462 0.093419351 -0.82300001
0.036734663 0.093192331 -0.82099998
0.038192313 0.092965312 -0.81900001
0.039642405 0.092738286 -0.81699997
0.041084941 0.092511266 -0.815
0.042519923 0.092284247 -0.81300002
0.044055723 0.092284247 -0.81300002
0.045479368 0.092057221 -0.81099999
0.04701139 0.092057221 -0.81099999
0.048423704 0.091830201 -0.80900002
0.049828455 0.091603175 -0.80699998
0.051225655 0.091376156 -0.80500001
0.052615296 0.091149136 -0.80299997
0.054132208 0.091149136 -0.80299997
0.055510517 0.090922117 -0.801
0.056952462 0.090808608 -0.80000001
0.058463704 0.090808608 -0.80000001
0.059825007 0.090581581 -0.79799998
0.061332475 0.090581581 -0.79799998
0.06283994 0.090581581 -0.79799998
0.064186133 0.090354562 -0.796
0.065689825 0.090354562 -0.796
0.067193508 0.090354562 -0.796
0.068697199 0.090354562 -0.796
0.070200883 0.090354562 -0.796
0.071884736 0.090581581 -0.79799998
0.073392197 0.090581581 -0.79799998
0.074899666 0.090581581 -0.79799998
0.076407127 0.090581581 -0.79799998
0.077914596 0.090581581 -0.79799998
0.079621121 0.090808608 -0.80000001
0.08113236 0.090808608 -0.80000001
0.082643606 0.090808608 -0.80000001
0.016936133 0.093683593 -0.83899999
0.01852105 0.093683593 -0.83899999
0.02005804 0.093460269 -0.83700001
0.021639178 0.093460269 -0.83700001
0.023164831 0.093236946 -0.83499998
0.024742192 0.093236946 -0.83499998
0.026256513 0.093013629 -0.833
0.027763275 0.092790298 -0.83099997
0.029262483 0.092566982 -0.829
0.030754136 0.092343666 -0.82700002
0.032316383 0.092343666 -0.82700002
0.033796698 0.092120335 -0.82499999
0.035269462 0.091897018 -0.82300001
0.036734663 0.091673695 -0.82099998
0.03828558 0.091673695 -0.82099998
0.039739449 0.091450371 -0.81900001
0.041185763 0.091227047 -0.81699997
0.042624522 0.091003731 -0.815
0.044055723 0.090780407 -0.81300002
0.045591526 0.090780407 -0.81300002
0.04701139 0.090557083 -0.81099999
0.048543416 0.090557083 -0.81099999
0.049951948 0.09033376 -0.80900002
0.051352922 0.090110436 -0.80699998
0.052746344 0.08988712 -0.80500001
0.054132208 0.089663796 -0.80299997
0.055510517 0.089440472 -0.801
0.057023648 0.089440472 -0.801
0.058463704 0.089328811 -0.80000001
0.059974946 0.089328811 -0.80000001
0.061332475 0.089105487 -0.79799998
0.06283994 0.089105487 -0.79799998
0.064347401 0.089105487 -0.79799998
0.065689825 0.088882171 -0.796
0.067193508 0.088882171 -0.796
0.068697199 0.088882171 -0.796
0.070200883 0.088882171 -0.796
0.071704574 0.088882171 -0.796
0.073208258 0.088882171 -0.796
0.074899666 0.089105487 -0.79799998
0.076407127 0.089105487 -0.79799998
0.077914596 0.089105487 -0.79799998
0.079422064 0.089105487 -0.79799998
0.080929525 0.089105487 -0.79799998
0.082643606 0.089328811 -0.80000001
0.024742192 0.09169241 -0.83499998
0.026256513 0.09147279 -0.833
0.027763275 0.091253169 -0.83099997
0.029262483 0.091033548 -0.829
0.030754136 0.090813927 -0.82700002
0.032316383 0.090813927 -0.82700002
0.033796698 0.090594299 -0.82499999
0.035355169 0.090594299 -0.82499999
0.036824152 0.090374678 -0.82300001
0.03828558 0.090155058 -0.82099998
0.039836492 0.090155058 -0.82099998
0.041286584 0.089935437 -0.81900001
0.042729121 0.089715809 -0.81699997
0.044164099 0.089496188 -0.815
0.045591526 0.089276567 -0.81300002
0.047127329 0.089276567 -0.81300002
0.048543416 0.089056946 -0.81099999
0.049951948 0.088837326 -0.80900002
0.051480193 0.088837326 -0.80900002
0.052746344 0.088398077 -0.80500001
0.054132208 0.088178448 -0.80299997
0.055649117 0.088178448 -0.80299997
0.057023648 0.087958835 -0.801
0.058536783 0.087958835 -0.801
0.059974946 0.087849021 -0.80000001
0.061332475 0.087629393 -0.79799998
0.06283994 0.087629393 -0.79799998
0.064347401 0.087629393 -0.79799998
0.06585487 0.087629393 -0.79799998
0.067193508 0.087409772 -0.796
0.068697199 0.087409772 -0.796
0.070200883 0.087409772 -0.796
0.071704574 0.087409772 -0.796
0.073208258 0.087409772 -0.796
0.074711949 0.087409772 -0.796
0.076407127 0.087629393 -0.79799998
0.077914596 0.087629393 -0.79799998
0.079422064 0.087629393 -0.79799998
0.080929525 0.087629393 -0.79799998
0.082436994 0.087629393 -0.79799998
0.027830096 0.089931957 -0.833
0.029333079 0.089716032 -0.83099997
0.030828509 0.089500114 -0.829
0.032316383 0.089284189 -0.82700002
0.033878632 0.089284189 -0.82700002
0.035355169 0.089068264 -0.82499999
0.036824152 0.088852346 -0.82300001
0.03828558 0.088636421 -0.82099998
0.039836492 0.088636421 -0.82099998
0.041286584 0.088420495 -0.81900001
0.042833723 0.088420495 -0.81900001
0.044272479 0.08820457 -0.81699997
0.045703679 0.087988652 -0.815
0.047127329 0.087772727 -0.81300002
0.048663128 0.087772727 -0.81300002
0.050075438 0.087556802 -0.81099999
0.051480193 0.087340884 -0.80900002
0.052746344 0.086909033 -0.80500001
0.054132208 0.086693108 -0.80299997
0.055649117 0.086693108 -0.80299997
0.057166029 0.086693108 -0.80299997
0.058536783 0.08647719 -0.801
0.060049914 0.08647719 -0.801
0.061486192 0.086369231 -0.80000001
0.06283994 0.086153306 -0.79799998
0.064347401 0.086153306 -0.79799998
0.06585487 0.086153306 -0.79799998
0.067193508 0.085937381 -0.796
0.068697199 0.085937381 -0.796
0.070200883 0.085937381 -0.796
0.071704574 0.085937381 -0.796
0.073208258 0.085937381 -0.796
0.074711949 0.085937381 -0.796
0.07621564 0.085937381 -0.796
0.077914596 0.086153306 -0.79799998
0.079422064 0.086153306 -0.79799998
0.080929525 0.086153306 -0.79799998
0.082436994 0.086153306 -0.79799998
0.030902883 0.088178895 -0.83099997
0.032394536 0.087966681 -0.829
0.033878632 0.087754458 -0.82700002
0.035440881 0.087754458 -0.82700002
0.036913641 0.087542228 -0.82499999
0.038378846 0.087330006 -0.82300001
0.039836492 0.087117784 -0.82099998
0.041387405 0.087117784 -0.82099998
0.042833723 0.086905561 -0.81900001
0.044380859 0.086905561 -0.81900001
0.045815837 0.086693332 -0.81699997
0.04724326 0.086481109 -0.815
0.048663128 0.086268894 -0.81300002
0.050075438 0.086056665 -0.81099999
0.05160746 0.086056665 -0.81099999
0.052877389 0.08563222 -0.80699998
0.054267034 0.085419998 -0.80500001
0.055649117 0.085207768 -0.80299997
0.057166029 0.085207768 -0.80299997
0.058682941 0.085207768 -0.80299997
0.060049914 0.084995545 -0.801
0.061486192 0.084889434 -0.80000001
0.062997438 0.084889434 -0.80000001
0.064347401 0.084677212 -0.79799998
0.06585487 0.084677212 -0.79799998
0.067193508 0.08446499 -0.796
0.068697199 0.08446499 -0.796
0.070200883 0.08446499 -0.796
0.071704574 0.08446499 -0.796
0.073208258 0.08446499 -0.796
0.074711949 0.08446499 -0.796
0.07621564 0.08446499 -0.796
0.077719323 0.08446499 -0.796
0.079422064 0.084677212 -0.79799998
0.080929525 0.084677212 -0.79799998
0.082436994 0.084677212 -0.79799998
0.083944462 0.084677212 -0.79799998
0.033960562 0.086433247 -0.829
0.035440881 0.08622472 -0.82700002
0.036913641 0.086016193 -0.82499999
0.038472109 0.086016193 -0.82499999
0.039933536 0.085807674 -0.82300001
0.041387405 0.085599147 -0.82099998
0.042833723 0.08539062 -0.81900001
0.044380859 0.08539062 -0.81900001
0.045815837 0.085182093 -0.81699997
0.047359195 0.085182093 -0.81699997
0.04878284 0.084973574 -0.815
0.050198931 0.084765054 -0.81300002
0.05160746 0.084556527 -0.81099999
0.053139485 0.084556527 -0.81099999
0.054401856 0.084139474 -0.80699998
0.055787724 0.083930954 -0.80500001
0.057166029 0.083722427 -0.80299997
0.058682941 0.083722427 -0.80299997
0.060199849 0.083722427 -0.80299997
0.061563049 0.083513908 -0.801
0.062997438 0.083409645 -0.80000001
0.064508677 0.083409645 -0.80000001
0.06585487 0.083201118 -0.79799998
0.067193508 0.082992598 -0.796
0.068697199 0.082992598 -0.796
0.070200883 0.082992598 -0.796
0.071704574 0.082992598 -0.796
0.073024325 0.082784072 -0.79400003
0.074524231 0.082784072 -0.79400003
0.07621564 0.082992598 -0.796
0.077719323 0.082992598 -0.796
0.079223014 0.082992598 -0.796
0.080929525 0.083201118 -0.79799998
0.082436994 0.083201118 -0.79799998
0.083944462 0.083201118 -0.79799998
0.035440881 0.084694989 -0.82700002
0.03700313 0.084694989 -0.82700002
0.038472109 0.084490158 -0.82499999
0.039933536 0.084285334 -0.82300001
0.041387405 0.08408051 -0.82099998
0.042833723 0.083875686 -0.81900001
0.044380859 0.083875686 -0.81900001
0.045927994 0.083875686 -0.81900001
0.047359195 0.083670862 -0.81699997
0.04878284 0.083466038 -0.815
0.050198931 0.083261214 -0.81300002
0.051734731 0.083261214 -0.81300002
0.053139485 0.083056383 -0.81099999
0.054536685 0.082851566 -0.80900002
0.055926323 0.082646735 -0.80699998
0.057308413 0.082441911 -0.80500001
0.058682941 0.082237087 -0.80299997
0.060199849 0.082237087 -0.80299997
0.061563049 0.082032263 -0.801
0.063076183 0.082032263 -0.801
0.064508677 0.081929855 -0.80000001
0.06585487 0.081725024 -0.79799998
0.067362338 0.081725024 -0.79799998
0.068697199 0.0815202 -0.796
0.070200883 0.0815202 -0.796
0.071524411 0.081315383 -0.79400003
0.073024325 0.081315383 -0.79400003
0.074524231 0.081315383 -0.79400003
0.07621564 0.0815202 -0.796
0.077719323 0.0815202 -0.796
0.079223014 0.0815202 -0.796
0.080726698 0.0815202 -0.796
0.082436994 0.081725024 -0.79799998
0.083944462 0.081725024 -0.79799998
0.08566609 0.081929855 -0.80000001
0.038472109 0.082964122 -0.82499999
0.039933536 0.082763001 -0.82300001
0.04148823 0.082763001 -0.82300001
0.042938322 0.082561873 -0.82099998
0.044380859 0.082360752 -0.81900001
0.045927994 0.082360752 -0.81900001
0.047475129 0.082360752 -0.81900001
0.048902549 0.082159624 -0.81699997
0.050322421 0.081958495 -0.815
0.051734731 0.081757374 -0.81300002
0.053270534 0.081757374 -0.81300002
0.054671507 0.081556246 -0.81099999
0.05606493 0.081355125 -0.80900002
0.057450794 0.081153996 -0.80699998
0.058829103 0.080952875 -0.80500001
0.060199849 0.080751747 -0.80299997
0.061716761 0.080751747 -0.80299997
0.063076183 0.080550626 -0.801
0.064508677 0.080450058 -0.80000001
0.06585487 0.08024893 -0.79799998
0.067362338 0.08024893 -0.79799998
0.068697199 0.080047809 -0.796
0.070200883 0.080047809 -0.796
0.071704574 0.080047809 -0.796
0.073208258 0.080047809 -0.796
0.074524231 0.079846688 -0.79400003
0.07621564 0.080047809 -0.796
0.077719323 0.080047809 -0.796
0.079223014 0.080047809 -0.796
0.080726698 0.080047809 -0.796
0.082436994 0.08024893 -0.79799998
0.083944462 0.08024893 -0.79799998
0.08566609 0.080450058 -0.80000001
0.04148823 0.081240661 -0.82300001
0.042938322 0.081043236 -0.82099998
0.044489235 0.081043236 -0.82099998
0.045927994 0.08084581 -0.81900001
0.047475129 0.08084581 -0.81900001
0.048902549 0.080648385 -0.81699997
0.050445907 0.080648385 -0.81699997
0.051861998 0.08045096 -0.815
0.053270534 0.080253534 -0.81300002
0.054806337 0.080253534 -0.81300002
0.056203533 0.080056109 -0.81099999
0.057593174 0.079858683 -0.80900002
0.058975261 0.079661258 -0.80699998
0.060349792 0.079463832 -0.80500001
0.061716761 0.079266407 -0.80299997
0.063233674 0.079266407 -0.80299997
0.064589314 0.079068981 -0.801
0.066019922 0.078970268 -0.80000001
0.067362338 0.078772843 -0.79799998
0.068697199 0.078575417 -0.796
0.070200883 0.078575417 -0.796
0.071704574 0.078575417 -0.796
0.073208258 0.078575417 -0.796
0.074711949 0.078575417 -0.796
0.07621564 0.078575417 -0.796
0.077719323 0.078575417 -0.796
0.079223014 0.078575417 -0.796
0.080726698 0.078575417 -0.796
0.082436994 0.078772843 -0.79799998
0.084154852 0.078970268 -0.80000001
0.042938322 0.079524599 -0.82099998
0.044489235 0.079524599 -0.82099998
0.045927994 0.079330876 -0.81900001
0.047475129 0.079330876 -0.81900001
0.049022265 0.079330876 -0.81900001
0.050445907 0.079137146 -0.81699997
0.051989265 0.079137146 -0.81699997
0.053401578 0.078943424 -0.815
0.054806337 0.078749701 -0.81300002
0.056342136 0.078749701 -0.81300002
0.057735555 0.078555971 -0.81099999
0.059121422 0.078362241 -0.80900002
0.060349792 0.077974789 -0.80500001
0.061870478 0.077974789 -0.80500001
0.063233674 0.077781059 -0.80299997
0.064750582 0.077781059 -0.80299997
0.066102445 0.077587336 -0.801
0.067531168 0.077490479 -0.80000001
0.068869799 0.077296749 -0.79799998
0.070200883 0.077103026 -0.796
0.071704574 0.077103026 -0.796
0.073208258 0.077103026 -0.796
0.074711949 0.077103026 -0.796
0.07621564 0.077103026 -0.796
0.077719323 0.077103026 -0.796
0.079223014 0.077103026 -0.796
0.080929525 0.077296749 -0.79799998
0.082436994 0.077296749 -0.79799998
0.084154852 0.077490479 -0.80000001
0.045927994 0.077815935 -0.81900001
0.047475129 0.077815935 -0.81900001
0.049022265 0.077815935 -0.81900001
0.0505694 0.077815935 -0.81900001
0.051989265 0.077625908 -0.81699997
0.053401578 0.077435881 -0.815
0.054806337 0.077245861 -0.81300002
0.056342136 0.077245861 -0.81300002
0.057735555 0.077055827 -0.81099999
0.059267577 0.077055827 -0.81099999
0.060499728 0.076675773 -0.80699998
0.061870478 0.076485753 -0.80500001
0.063391171 0.076485753 -0.80500001
0.064750582 0.076295719 -0.80299997
0.066267498 0.076295719 -0.80299997
0.067615584 0.076105699 -0.801
0.069042414 0.076010682 -0.80000001
0.070377268 0.075820655 -0.79799998
0.071884736 0.075820655 -0.79799998
0.073208258 0.075630628 -0.796
0.074711949 0.075630628 -0.796
0.07621564 0.075630628 -0.796
0.077719323 0.075630628 -0.796
0.079422064 0.075820655 -0.79799998
0.080929525 0.075820655 -0.79799998
0.082436994 0.075820655 -0.79799998
0.051989265 0.076114669 -0.81699997
0.053401578 0.075928345 -0.815
0.054941159 0.075928345 -0.815
0.056342136 0.075742021 -0.81300002
0.057877939 0.075742021 -0.81300002
0.059267577 0.07555569 -0.81099999
0.060649667 0.075369366 -0.80900002
0.062024195 0.075183034 -0.80699998
0.063391171 0.07499671 -0.80500001
0.064911857 0.07499671 -0.80500001
0.066267498 0.074810378 -0.80299997
0.067784406 0.074810378 -0.80299997
0.069128715 0.074624054 -0.801
0.070553653 0.074530892 -0.80000001
0.071884736 0.074344561 -0.79799998
0.073392197 0.074344561 -0.79799998
0.074899666 0.074344561 -0.79799998
0.076407127 0.074344561 -0.79799998
0.077914596 0.074344561 -0.79799998
0.079422064 0.074344561 -0.79799998
0.080929525 0.074344561 -0.79799998
0.082746908 0.074624054 -0.801
0.054941159 0.07442081 -0.815
0.056342136 0.074238181 -0.81300002
0.057877939 0.074238181 -0.81300002
0.059413739 0.074238181 -0.81300002
0.060799602 0.074055552 -0.81099999
0.062177911 0.073872924 -0.80900002
0.063548662 0.073690295 -0.80699998
0.064911857 0.073507667 -0.80500001
0.066432551 0.073507667 -0.80500001
0.067784406 0.073325038 -0.80299997
0.069301315 0.073325038 -0.80299997
0.070641845 0.073142409 -0.801
0.072064899 0.073051102 -0.80000001
0.073576145 0.073051102 -0.80000001
0.075087383 0.073051102 -0.80000001
0.076407127 0.072868466 -0.79799998
0.077914596 0.072868466 -0.79799998
0.079422064 0.072868466 -0.79799998
0.08113236 0.073051102 -0.80000001
0.082746908 0.073142409 -0.801
0.057877939 0.072734341 -0.81300002
0.059413739 0.072734341 -0.81300002
0.060799602 0.072555415 -0.81099999
0.062331624 0.072555415 -0.81099999
0.06370616 0.072376482 -0.80900002
0.065073125 0.072197556 -0.80699998
0.066432551 0.072018631 -0.80500001
0.067953236 0.072018631 -0.80500001
0.069301315 0.071839698 -0.80299997
0.070818231 0.071839698 -0.80299997
0.072154976 0.071660772 -0.801
0.073668115 0.071660772 -0.801
0.075181246 0.071660772 -0.801
0.076598629 0.071571305 -0.80000001
0.078109875 0.071571305 -0.80000001
0.079621121 0.071571305 -0.80000001
0.081233777 0.071660772 -0.801
0.082953513 0.071839698 -0.80299997
0.060799602 0.071055271 -0.81099999
0.062331624 0.071055271 -0.81099999
0.06370616 0.070880048 -0.80900002
0.0652344 0.070880048 -0.80900002
0.066597596 0.070704818 -0.80699998
0.067953236 0.070529588 -0.80500001
0.069473922 0.070529588 -0.80500001
0.070818231 0.070354357 -0.80299997
0.072335139 0.070354357 -0.80299997
0.073852047 0.070354357 -0.80299997
0.075181246 0.070179127 -0.801
0.076694377 0.070179127 -0.801
0.078207508 0.070179127 -0.801
0.079720646 0.070179127 -0.801
0.081436604 0.070354357 -0.80299997
0.082953513 0.070354357 -0.80299997
0.08510159 0.070880048 -0.80900002
0.0652344 0.069383606 -0.80900002
0.066597596 0.069212072 -0.80699998
0.068122059 0.069212072 -0.80699998
0.069473922 0.069040544 -0.80500001
0.070994616 0.069040544 -0.80500001
0.072335139 0.068869017 -0.80299997
0.073852047 0.068869017 -0.80299997
0.075368963 0.068869017 -0.80299997
0.076885872 0.068869017 -0.80299997
0.07840278 0.068869017 -0.80299997
0.079919696 0.068869017 -0.80299997
0.081436604 0.068869017 -0.80299997
0.082953513 0.068869017 -0.80299997
0.08510159 0.069383606 -0.80900002
0.066762649 0.067887165 -0.80900002
0.068122059 0.067719333 -0.80699998
0.069473922 0.067551509 -0.80500001
0.070994616 0.067551509 -0.80500001
0.072515301 0.067551509 -0.80500001
0.073852047 0.067383677 -0.80299997
0.075368963 0.067383677 -0.80299997
0.076885872 0.067383677 -0.80299997
