# .PCD v0.7 - Point Cloud Data file format
VERSION 0.7
FIELDS x y z
SIZE 4 4 4
TYPE F F F
COUNT 1 1 1
WIDTH 1394
HEIGHT 1
VIEWPOINT 0 0 0 1 0 0 0
POINTS 1394
DATA ascii
0.071347386 0.11876612 -0.80900002
0.072875626 0.11876612 -0.80900002
0.074587815 0.11905973 -0.81099999
0.076119833 0.11905973 -0.81099999
0.077843361 0.11935335 -0.81300002
0.013093571 0.11567515 -0.79799998
0.014564443 0.11538525 -0.796
0.016068131 0.11538525 -0.796
0.017571818 0.11538525 -0.796
0.019027578 0.11509534 -0.79400003
0.020475781 0.11480542 -0.792
0.021971911 0.11480542 -0.792
0.023408782 0.11451551 -0.79000002
0.024838094 0.1142256 -0.78799999
0.026326668 0.1142256 -0.78799999
0.027779944 0.11408064 -0.787
0.029266631 0.11408064 -0.787
0.030792393 0.1142256 -0.78799999
0.03228097 0.1142256 -0.78799999
0.033769544 0.1142256 -0.78799999
0.035258118 0.1142256 -0.78799999
0.036746696 0.1142256 -0.78799999
0.038332313 0.11451551 -0.79000002
0.03992549 0.11480542 -0.792
0.041526221 0.11509534 -0.79400003
0.043026131 0.11509534 -0.79400003
0.044638198 0.11538525 -0.796
0.046141885 0.11538525 -0.796
0.047645573 0.11538525 -0.796
0.04914926 0.11538525 -0.796
0.050652947 0.11538525 -0.796
0.052287679 0.11567515 -0.79799998
0.053795144 0.11567515 -0.79799998
0.055441216 0.11596508 -0.80000001
0.056952462 0.11596508 -0.80000001
0.058536783 0.11611003 -0.801
0.060199849 0.11639994 -0.80299997
0.061716761 0.11639994 -0.80299997
0.063233674 0.11639994 -0.80299997
0.064911857 0.11668985 -0.80500001
0.066597596 0.11697976 -0.80699998
0.068290897 0.11726968 -0.80900002
0.069819137 0.11726968 -0.80900002
0.071523763 0.11755959 -0.81099999
0.073055789 0.11755959 -0.81099999
0.074587815 0.11755959 -0.81099999
0.076307558 0.11784951 -0.81300002
0.077843361 0.11784951 -0.81300002
0.079769708 0.11842933 -0.81699997
0.014564443 0.11391285 -0.796
0.016068131 0.11391285 -0.796
0.017571818 0.11391285 -0.796
0.019027578 0.11362664 -0.79400003
0.020475781 0.11334042 -0.792
0.021971911 0.11334042 -0.792
0.023408782 0.11305422 -0.79000002
0.024838094 0.11276799 -0.78799999
0.026326668 0.11276799 -0.78799999
0.027815243 0.11276799 -0.78799999
0.029303819 0.11276799 -0.78799999
0.030792393 0.11276799 -0.78799999
0.03228097 0.11276799 -0.78799999
0.033769544 0.11276799 -0.78799999
0.035258118 0.11276799 -0.78799999
0.036839962 0.11305422 -0.79000002
0.038332313 0.11305422 -0.79000002
0.040026311 0.11362664 -0.79400003
0.041526221 0.11362664 -0.79400003
0.043134507 0.11391285 -0.796
0.044638198 0.11391285 -0.796
0.046141885 0.11391285 -0.796
0.047645573 0.11391285 -0.796
0.04927275 0.11419906 -0.79799998
0.050780214 0.11419906 -0.79799998
0.052287679 0.11419906 -0.79799998
0.053929973 0.11448528 -0.80000001
0.055510517 0.11462838 -0.801
0.057023648 0.11462838 -0.801
0.058682941 0.1149146 -0.80299997
0.060199849 0.1149146 -0.80299997
0.061716761 0.1149146 -0.80299997
0.063391171 0.11520081 -0.80500001
0.064911857 0.11520081 -0.80500001
0.066597596 0.11548702 -0.80699998
0.068290897 0.11577324 -0.80900002
0.069991745 0.11605945 -0.81099999
0.071523763 0.11605945 -0.81099999
0.073055789 0.11605945 -0.81099999
0.074771754 0.11634567 -0.81300002
0.076307558 0.11634567 -0.81300002
0.078034855 0.11663188 -0.815
0.079769708 0.11691809 -0.81699997
0.081512116 0.1172043 -0.81900001
0.014564443 0.11244046 -0.796
0.016068131 0.11244046 -0.796
0.01752767 0.11215795 -0.79400003
0.019027578 0.11215795 -0.79400003
0.020475781 0.11187543 -0.792
0.021916429 0.11159292 -0.79000002
0.023408782 0.11159292 -0.79000002
0.024838094 0.1113104 -0.78799999
0.026326668 0.1113104 -0.78799999
0.027815243 0.1113104 -0.78799999
0.029303819 0.1113104 -0.78799999
0.030792393 0.1113104 -0.78799999
0.03228097 0.1113104 -0.78799999
0.033769544 0.1113104 -0.78799999
0.035347607 0.11159292 -0.79000002
0.036839962 0.11159292 -0.79000002
0.038429357 0.11187543 -0.792
0.040026311 0.11215795 -0.79400003
0.041630819 0.11244046 -0.796
0.043134507 0.11244046 -0.796
0.044638198 0.11244046 -0.796
0.046257816 0.11272297 -0.79799998
0.047765281 0.11272297 -0.79799998
0.04927275 0.11272297 -0.79799998
0.050780214 0.11272297 -0.79799998
0.052418727 0.11300549 -0.80000001
0.053997383 0.11314674 -0.801
0.055649117 0.11342926 -0.80299997
0.057166029 0.11342926 -0.80299997
0.058682941 0.11342926 -0.80299997
0.060349792 0.11371177 -0.80500001
0.061870478 0.11371177 -0.80500001
0.063391171 0.11371177 -0.80500001
0.065073125 0.11399428 -0.80699998
0.066762649 0.1142768 -0.80900002
0.068459719 0.11455931 -0.81099999
0.069991745 0.11455931 -0.81099999
0.071523763 0.11455931 -0.81099999
0.073235951 0.11484183 -0.81300002
0.074771754 0.11484183 -0.81300002
0.076495275 0.11512434 -0.815
0.07822635 0.11540685 -0.81699997
0.07996498 0.11568937 -0.81900001
0.081512116 0.11568937 -0.81900001
0.083262086 0.11597188 -0.82099998
0.013060756 0.11096807 -0.796
0.014564443 0.11096807 -0.796
0.016068131 0.11096807 -0.796
0.01752767 0.11068925 -0.79400003
0.01897965 0.11041044 -0.792
0.020475781 0.11041044 -0.792
0.021916429 0.11013163 -0.79000002
0.023408782 0.11013163 -0.79000002
0.024838094 0.10985281 -0.78799999
0.026326668 0.10985281 -0.78799999
0.027815243 0.10985281 -0.78799999
0.029303819 0.10985281 -0.78799999
0.030792393 0.10985281 -0.78799999
0.03228097 0.10985281 -0.78799999
0.033855256 0.11013163 -0.79000002
0.035347607 0.11013163 -0.79000002
0.036933225 0.11041044 -0.792
0.038526405 0.11068925 -0.79400003
0.040127132 0.11096807 -0.796
0.041630819 0.11096807 -0.796
0.043242887 0.11124688 -0.79799998
0.044750351 0.11124688 -0.79799998
0.046257816 0.11124688 -0.79799998
0.047884997 0.1115257 -0.80000001
0.049396239 0.1115257 -0.80000001
0.050971117 0.1116651 -0.801
0.052484252 0.1116651 -0.801
0.054132208 0.11194392 -0.80299997
0.055649117 0.11194392 -0.80299997
0.057308413 0.11222273 -0.80500001
0.058829103 0.11222273 -0.80500001
0.060349792 0.11222273 -0.80500001
0.062024195 0.11250154 -0.80699998
0.063548662 0.11250154 -0.80699998
0.0652344 0.11278036 -0.80900002
0.066927694 0.11305917 -0.81099999
0.068459719 0.11305917 -0.81099999
0.070164353 0.11333799 -0.81300002
0.071700156 0.11333799 -0.81300002
0.073235951 0.11333799 -0.81300002
0.074955694 0.1136168 -0.815
0.076682992 0.11389561 -0.81699997
0.078417845 0.11417443 -0.81900001
0.07996498 0.11417443 -0.81900001
0.081711166 0.11445324 -0.82099998
0.083262086 0.11445324 -0.82099998
0.085019611 0.11473206 -0.82300001
0.011586105 0.10977078 -0.79799998
0.013060756 0.10949567 -0.796
0.014564443 0.10949567 -0.796
0.01602776 0.10922056 -0.79400003
0.01752767 0.10922056 -0.79400003
0.01897965 0.10894544 -0.792
0.020475781 0.10894544 -0.792
0.021916429 0.10867033 -0.79000002
0.023408782 0.10867033 -0.79000002
0.024838094 0.10839521 -0.78799999
0.026326668 0.10839521 -0.78799999
0.027815243 0.10839521 -0.78799999
0.029303819 0.10839521 -0.78799999
0.030870548 0.10867033 -0.79000002
0.032362901 0.10867033 -0.79000002
0.033855256 0.10867033 -0.79000002
0.035437096 0.10894544 -0.792
0.037026495 0.10922056 -0.79400003
0.038623445 0.10949567 -0.796
0.040127132 0.10949567 -0.796
0.041735418 0.10977078 -0.79799998
0.043242887 0.10977078 -0.79799998
0.044750351 0.10977078 -0.79799998
0.046373755 0.1100459 -0.80000001
0.047944851 0.11018346 -0.801
0.049457986 0.11018346 -0.801
0.051098384 0.11045857 -0.80299997
0.052615296 0.11045857 -0.80299997
0.054132208 0.11045857 -0.80299997
0.055787724 0.11073369 -0.80500001
0.057308413 0.11073369 -0.80500001
0.058829103 0.11073369 -0.80500001
0.060499728 0.1110088 -0.80699998
0.062024195 0.1110088 -0.80699998
0.06370616 0.11128392 -0.80900002
0.065395676 0.11155903 -0.81099999
0.066927694 0.11155903 -0.81099999
0.06862855 0.11183415 -0.81300002
0.070164353 0.11183415 -0.81300002
0.071876533 0.11210926 -0.815
0.073416114 0.11210926 -0.815
0.075139634 0.11238437 -0.81699997
0.07687071 0.11265949 -0.81900001
0.078417845 0.11265949 -0.81900001
0.080160253 0.1129346 -0.82099998
0.081711166 0.1129346 -0.82099998
0.083464921 0.11320972 -0.82300001
0.085019611 0.11320972 -0.82300001
0.011557068 0.10802328 -0.796
0.013060756 0.10802328 -0.796
0.014564443 0.10802328 -0.796
0.01602776 0.10775187 -0.79400003
0.01752767 0.10775187 -0.79400003
0.01897965 0.10748045 -0.792
0.020475781 0.10748045 -0.792
0.021916429 0.10720903 -0.79000002
0.023408782 0.10720903 -0.79000002
0.024901135 0.10720903 -0.79000002
0.026326668 0.10693762 -0.78799999
0.027885841 0.10720903 -0.79000002
0.029378194 0.10720903 -0.79000002
0.030870548 0.10720903 -0.79000002
0.032362901 0.10720903 -0.79000002
0.033940963 0.10748045 -0.792
0.035526585 0.10775187 -0.79400003
0.037119757 0.10802328 -0.796
0.038623445 0.10802328 -0.796
0.040127132 0.10802328 -0.796
0.041735418 0.10829469 -0.79799998
0.043242887 0.10829469 -0.79799998
0.044862509 0.10856611 -0.80000001
0.04643172 0.10870182 -0.801
0.048064563 0.10897323 -0.80299997
0.049581476 0.10897323 -0.80299997
0.051098384 0.10897323 -0.80299997
0.052746344 0.10924465 -0.80500001
0.054267034 0.10924465 -0.80500001
0.055787724 0.10924465 -0.80500001
0.057308413 0.10924465 -0.80500001
0.058975261 0.10951606 -0.80699998
0.060649667 0.10978748 -0.80900002
0.062177911 0.10978748 -0.80900002
0.06370616 0.10978748 -0.80900002
0.065395676 0.1100589 -0.81099999
0.067092746 0.11033031 -0.81300002
0.06862855 0.11033031 -0.81300002
0.070336953 0.11060172 -0.815
0.071876533 0.11060172 -0.815
0.073596276 0.11087313 -0.81699997
0.075323574 0.11114456 -0.81900001
0.07687071 0.11114456 -0.81900001
0.07860934 0.11141597 -0.82099998
0.080160253 0.11141597 -0.82099998
0.081910223 0.11168738 -0.82300001
0.083464921 0.11168738 -0.82300001
0.085019611 0.11168738 -0.82300001
0.086574301 0.11168738 -0.82300001
0.01007864 0.1068186 -0.79799998
0.011557068 0.10655089 -0.796
0.013060756 0.10655089 -0.796
0.014564443 0.10655089 -0.796
0.01602776 0.10628317 -0.79400003
0.01752767 0.10628317 -0.79400003
0.01897965 0.10601545 -0.792
0.020424075 0.10574774 -0.79000002
0.021916429 0.10574774 -0.79000002
0.023408782 0.10574774 -0.79000002
0.024901135 0.10574774 -0.79000002
0.026393488 0.10574774 -0.79000002
0.027885841 0.10574774 -0.79000002
0.029378194 0.10574774 -0.79000002
0.030870548 0.10574774 -0.79000002
0.032444831 0.10601545 -0.792
0.034026675 0.10628317 -0.79400003
0.035526585 0.10628317 -0.79400003
0.037119757 0.10655089 -0.796
0.038623445 0.10655089 -0.796
0.040227953 0.1068186 -0.79799998
0.041735418 0.1068186 -0.79799998
0.043351267 0.10708632 -0.80000001
0.044918586 0.10722017 -0.801
0.046547651 0.10748789 -0.80299997
0.048064563 0.10748789 -0.80299997
0.049581476 0.10748789 -0.80299997
0.051225655 0.10775561 -0.80500001
0.052746344 0.10775561 -0.80500001
0.054267034 0.10775561 -0.80500001
0.055926323 0.10802332 -0.80699998
0.057450794 0.10802332 -0.80699998
0.059121422 0.10829104 -0.80900002
0.060649667 0.10829104 -0.80900002
0.062331624 0.10855875 -0.81099999
0.06386365 0.10855875 -0.81099999
0.065395676 0.10855875 -0.81099999
0.067092746 0.10882647 -0.81300002
0.06862855 0.10882647 -0.81300002
0.070336953 0.10909419 -0.815
0.072052918 0.1093619 -0.81699997
0.073776439 0.10962962 -0.81900001
0.075323574 0.10962962 -0.81900001
0.077058427 0.10989733 -0.82099998
0.07860934 0.10989733 -0.82099998
0.080355532 0.11016505 -0.82300001
0.081910223 0.11016505 -0.82300001
0.083667748 0.11043277 -0.82499999
0.085226215 0.11043277 -0.82499999
0.086574301 0.11016505 -0.82300001
0.088128991 0.11016505 -0.82300001
0.008571174 0.10534251 -0.79799998
0.01005338 0.1050785 -0.796
0.011557068 0.1050785 -0.796
0.013060756 0.1050785 -0.796
0.01452785 0.10481448 -0.79400003
0.01602776 0.10481448 -0.79400003
0.017483518 0.10455046 -0.792
0.01897965 0.10455046 -0.792
0.020424075 0.10428645 -0.79000002
0.021916429 0.10428645 -0.79000002
0.023408782 0.10428645 -0.79000002
0.024901135 0.10428645 -0.79000002
0.026393488 0.10428645 -0.79000002
0.027885841 0.10428645 -0.79000002
0.029378194 0.10428645 -0.79000002
0.0309487 0.10455046 -0.792
0.032526765 0.10481448 -0.79400003
0.034026675 0.10481448 -0.79400003
0.03561607 0.1050785 -0.796
0.037213024 0.10534251 -0.79799998
0.038720489 0.10534251 -0.79799998
0.040227953 0.10534251 -0.79799998
0.041840021 0.10560653 -0.80000001
0.043405455 0.10573854 -0.801
0.045030743 0.10600255 -0.80299997
0.046547651 0.10600255 -0.80299997
0.048184279 0.10626657 -0.80500001
0.049704965 0.10626657 -0.80500001
0.051225655 0.10626657 -0.80500001
0.052877389 0.10653058 -0.80699998
0.054401856 0.10653058 -0.80699998
0.055926323 0.10653058 -0.80699998
0.057593174 0.1067946 -0.80900002
0.059267577 0.10705861 -0.81099999
0.060799602 0.10705861 -0.81099999
0.062331624 0.10705861 -0.81099999
0.06386365 0.10705861 -0.81099999
0.065556943 0.10732263 -0.81300002
0.067092746 0.10732263 -0.81300002
0.068797372 0.10758664 -0.815
0.07050956 0.10785066 -0.81699997
0.072229303 0.10811468 -0.81900001
0.073776439 0.10811468 -0.81900001
0.075507514 0.10837869 -0.82099998
0.077058427 0.10837869 -0.82099998
0.078800842 0.10864271 -0.82300001
0.080355532 0.10864271 -0.82300001
0.082109272 0.10890673 -0.82499999
0.083667748 0.10890673 -0.82499999
0.085226215 0.10890673 -0.82499999
0.086784683 0.10890673 -0.82499999
0.088128991 0.10864271 -0.82300001
0.089683689 0.10864271 -0.82300001
0.0070637083 0.10386641 -0.79799998
0.008549693 0.1036061 -0.796
0.01005338 0.1036061 -0.796
0.011557068 0.1036061 -0.796
0.013060756 0.1036061 -0.796
0.01452785 0.10334579 -0.79400003
0.01602776 0.10334579 -0.79400003
0.017483518 0.10308547 -0.792
0.01897965 0.10308547 -0.792
0.020424075 0.10282515 -0.79000002
0.021916429 0.10282515 -0.79000002
0.023408782 0.10282515 -0.79000002
0.024901135 0.10282515 -0.79000002
0.026393488 0.10282515 -0.79000002
0.027885841 0.10282515 -0.79000002
0.02945257 0.10308547 -0.792
0.031026855 0.10334579 -0.79400003
0.032526765 0.10334579 -0.79400003
0.034112383 0.1036061 -0.796
0.035705555 0.10386641 -0.79799998
0.037213024 0.10386641 -0.79799998
0.038720489 0.10386641 -0.79799998
0.040328778 0.10412674 -0.80000001
0.04189232 0.10425689 -0.801
0.043513831 0.10451721 -0.80299997
0.045030743 0.10451721 -0.80299997
0.04666359 0.10477753 -0.80500001
0.048184279 0.10477753 -0.80500001
0.049704965 0.10477753 -0.80500001
0.051352922 0.10503784 -0.80699998
0.053008441 0.10529816 -0.80900002
0.054536685 0.10529816 -0.80900002
0.05606493 0.10529816 -0.80900002
0.057735555 0.10555848 -0.81099999
0.059267577 0.10555848 -0.81099999
0.060799602 0.10555848 -0.81099999
0.062331624 0.10555848 -0.81099999
0.064021148 0.10581879 -0.81300002
0.065556943 0.10581879 -0.81300002
0.067257799 0.10607911 -0.815
0.068966202 0.10633942 -0.81699997
0.070682168 0.10659974 -0.81900001
0.072229303 0.10659974 -0.81900001
0.073956601 0.10686006 -0.82099998
0.075507514 0.10686006 -0.82099998
0.077246152 0.10712038 -0.82300001
0.078800842 0.10712038 -0.82300001
0.080550805 0.1073807 -0.82499999
0.082109272 0.1073807 -0.82499999
0.083870582 0.10764101 -0.82700002
0.085226215 0.1073807 -0.82499999
0.086784683 0.1073807 -0.82499999
0.088343158 0.1073807 -0.82499999
0.089683689 0.10712038 -0.82300001
0.091238379 0.10712038 -0.82300001
0.0070814122 0.10264694 -0.80000001
0.008571174 0.10239032 -0.79799998
0.01005338 0.10213371 -0.796
0.011557068 0.10213371 -0.796
0.013060756 0.10213371 -0.796
0.01452785 0.10187709 -0.79400003
0.01602776 0.10187709 -0.79400003
0.017483518 0.10162047 -0.792
0.01897965 0.10162047 -0.792
0.020475781 0.10162047 -0.792
0.021916429 0.10136386 -0.79000002
0.023408782 0.10136386 -0.79000002
0.024901135 0.10136386 -0.79000002
0.026460307 0.10162047 -0.792
0.027956437 0.10162047 -0.792
0.029526945 0.10187709 -0.79400003
0.031026855 0.10187709 -0.79400003
0.032608695 0.10213371 -0.796
0.034112383 0.10213371 -0.796
0.035705555 0.10239032 -0.79799998
0.03730629 0.10264694 -0.80000001
0.038866054 0.10277525 -0.801
0.040379189 0.10277525 -0.801
0.041996919 0.10303187 -0.80299997
0.043513831 0.10303187 -0.80299997
0.0451429 0.10328849 -0.80500001
0.04666359 0.10328849 -0.80500001
0.048184279 0.10328849 -0.80500001
0.049828455 0.1035451 -0.80699998
0.051480193 0.10380172 -0.80900002
0.053008441 0.10380172 -0.80900002
0.054536685 0.10380172 -0.80900002
0.056203533 0.10405833 -0.81099999
0.057735555 0.10405833 -0.81099999
0.059267577 0.10405833 -0.81099999
0.060949542 0.10431496 -0.81300002
0.062485345 0.10431496 -0.81300002
0.064021148 0.10431496 -0.81300002
0.065718219 0.10457157 -0.815
0.067422844 0.10482819 -0.81699997
0.069135033 0.10508481 -0.81900001
0.070682168 0.10508481 -0.81900001
0.072405688 0.10534142 -0.82099998
0.073956601 0.10534142 -0.82099998
0.075691454 0.10559804 -0.82300001
0.077246152 0.10559804 -0.82300001
0.078992337 0.10585466 -0.82499999
0.080550805 0.10585466 -0.82499999
0.08230833 0.10611128 -0.82700002
0.083870582 0.10611128 -0.82700002
0.085432827 0.10611128 -0.82700002
0.086784683 0.10585466 -0.82499999
0.088343158 0.10585466 -0.82499999
0.089683689 0.10559804 -0.82300001
0.091238379 0.10559804 -0.82300001
0.0056049819 0.10179944 -0.80500001
0.007090264 0.10129361 -0.801
0.0085926559 0.10116715 -0.80000001
0.01007864 0.10091423 -0.79799998
0.011557068 0.10066132 -0.796
0.013060756 0.10066132 -0.796
0.014564443 0.10066132 -0.796
0.01602776 0.1004084 -0.79400003
0.01752767 0.1004084 -0.79400003
0.01897965 0.10015548 -0.792
0.020475781 0.10015548 -0.792
0.021971911 0.10015548 -0.792
0.023468044 0.10015548 -0.792
0.024964174 0.10015548 -0.792
0.026460307 0.10015548 -0.792
0.028027035 0.1004084 -0.79400003
0.029526945 0.1004084 -0.79400003
0.031105008 0.10066132 -0.796
0.032608695 0.10066132 -0.796
0.03419809 0.10091423 -0.79799998
0.035795044 0.10116715 -0.80000001
0.037352923 0.10129361 -0.801
0.038963098 0.10154653 -0.80299997
0.04048001 0.10154653 -0.80299997
0.042101521 0.10179944 -0.80500001
0.043622211 0.10179944 -0.80500001
0.0451429 0.10179944 -0.80500001
0.046779521 0.10205236 -0.80699998
0.048303988 0.10205236 -0.80699998
0.049951948 0.10230528 -0.80900002
0.051480193 0.10230528 -0.80900002
0.053139485 0.1025582 -0.81099999
0.054671507 0.1025582 -0.81099999
0.056203533 0.1025582 -0.81099999
0.057877939 0.10281112 -0.81300002
0.059413739 0.10281112 -0.81300002
0.060949542 0.10281112 -0.81300002
0.062639058 0.10306403 -0.815
0.064178638 0.10306403 -0.815
0.065879487 0.10331695 -0.81699997
0.067587897 0.10356987 -0.81900001
0.069135033 0.10356987 -0.81900001
0.070854768 0.10382278 -0.82099998
0.072405688 0.10382278 -0.82099998
0.074136764 0.10407571 -0.82300001
0.075691454 0.10407571 -0.82300001
0.077433862 0.10432862 -0.82499999
0.078992337 0.10432862 -0.82499999
0.080550805 0.10432862 -0.82499999
0.08230833 0.10458154 -0.82700002
0.083870582 0.10458154 -0.82700002
0.085432827 0.10458154 -0.82700002
0.08699508 0.10458154 -0.82700002
0.088343158 0.10432862 -0.82499999
0.089901626 0.10432862 -0.82499999
0.091460094 0.10432862 -0.82499999
0.0040842928 0.10031041 -0.80500001
0.0055910563 0.10006118 -0.80299997
0.007107967 0.10006118 -0.80299997
0.0086033968 0.099811964 -0.801
0.0101039 0.09968736 -0.80000001
0.011586105 0.099438138 -0.79799998
0.013060756 0.099188924 -0.796
0.014564443 0.099188924 -0.796
0.016068131 0.099188924 -0.796
0.01752767 0.098939709 -0.79400003
0.019027578 0.098939709 -0.79400003
0.020475781 0.09869048 -0.792
0.021971911 0.09869048 -0.792
0.023468044 0.09869048 -0.792
0.024964174 0.09869048 -0.792
0.026527125 0.098939709 -0.79400003
0.028027035 0.098939709 -0.79400003
0.029601319 0.099188924 -0.796
0.031105008 0.099188924 -0.796
0.032690626 0.099438138 -0.79799998
0.034283802 0.09968736 -0.80000001
0.035839789 0.099811964 -0.801
0.037446186 0.10006118 -0.80299997
0.038963098 0.10006118 -0.80299997
0.040580831 0.10031041 -0.80500001
0.042101521 0.10031041 -0.80500001
0.043622211 0.10031041 -0.80500001
0.0451429 0.10031041 -0.80500001
0.046779521 0.10055962 -0.80699998
0.048423704 0.10080884 -0.80900002
0.049951948 0.10080884 -0.80900002
0.05160746 0.10105806 -0.81099999
0.053139485 0.10105806 -0.81099999
0.054671507 0.10105806 -0.81099999
0.056342136 0.10130728 -0.81300002
0.057877939 0.10130728 -0.81300002
0.059559897 0.10155649 -0.815
0.061099477 0.10155649 -0.815
0.062792771 0.10180571 -0.81699997
0.064336129 0.10180571 -0.81699997
0.066040762 0.10205493 -0.81900001
0.067587897 0.10205493 -0.81900001
0.069303855 0.10230415 -0.82099998
0.070854768 0.10230415 -0.82099998
0.072582074 0.10255337 -0.82300001
0.074136764 0.10255337 -0.82300001
0.075875394 0.10280258 -0.82499999
0.077433862 0.10280258 -0.82499999
0.078992337 0.10280258 -0.82499999
0.080746084 0.10305181 -0.82700002
0.08230833 0.10305181 -0.82700002
0.084073409 0.10330103 -0.829
0.085639432 0.10330103 -0.829
0.08699508 0.10305181 -0.82700002
0.088557325 0.10305181 -0.82700002
0.09011957 0.10305181 -0.82700002
0.091681823 0.10305181 -0.82700002
0.0025636035 0.098821364 -0.80500001
0.0040842928 0.098821364 -0.80500001
0.0055910563 0.098575838 -0.80299997
0.007107967 0.098575838 -0.80299997
0.0086248778 0.098575838 -0.80299997
0.01011653 0.098330326 -0.801
0.011586105 0.097962044 -0.79799998
0.013093571 0.097962044 -0.79799998
0.014564443 0.097716525 -0.796
0.016068131 0.097716525 -0.796
0.01752767 0.097471014 -0.79400003
0.019027578 0.097471014 -0.79400003
0.020527488 0.097471014 -0.79400003
0.022027398 0.097471014 -0.79400003
0.023527307 0.097471014 -0.79400003
0.025027217 0.097471014 -0.79400003
0.026527125 0.097471014 -0.79400003
0.028097631 0.097716525 -0.796
0.029601319 0.097716525 -0.796
0.031183159 0.097962044 -0.79799998
0.03277256 0.098207563 -0.80000001
0.034326658 0.098330326 -0.801
0.035929274 0.098575838 -0.80299997
0.037446186 0.098575838 -0.80299997
0.039060142 0.098821364 -0.80500001
0.040580831 0.098821364 -0.80500001
0.042101521 0.098821364 -0.80500001
0.043622211 0.098821364 -0.80500001
0.045255054 0.099066876 -0.80699998
0.046779521 0.099066876 -0.80699998
0.048423704 0.099312402 -0.80900002
0.049951948 0.099312402 -0.80900002
0.05160746 0.099557921 -0.81099999
0.053139485 0.099557921 -0.81099999
0.054806337 0.09980344 -0.81300002
0.056342136 0.09980344 -0.81300002
0.058020316 0.10004896 -0.815
0.059559897 0.10004896 -0.815
0.061249413 0.10029447 -0.81699997
0.062946491 0.10054 -0.81900001
0.064493626 0.10054 -0.81900001
0.06620203 0.10078551 -0.82099998
0.067752942 0.10078551 -0.82099998
0.069472685 0.10103104 -0.82300001
0.071027383 0.10103104 -0.82300001
0.072758451 0.10127655 -0.82499999
0.074316926 0.10127655 -0.82499999
0.076059341 0.10152207 -0.82700002
0.077621587 0.10152207 -0.82700002
0.079183832 0.10152207 -0.82700002
0.080746084 0.10152207 -0.82700002
0.082507379 0.10176759 -0.829
0.084073409 0.10176759 -0.829
0.085639432 0.10176759 -0.829
0.087205462 0.10176759 -0.829
0.088771485 0.10176759 -0.829
0.090337515 0.10176759 -0.829
0.0010429145 0.097332321 -0.80500001
0.0025636035 0.097332321 -0.80500001
0.0040842928 0.097332321 -0.80500001
0.0055910563 0.097090498 -0.80299997
0.007107967 0.097090498 -0.80299997
0.0086248778 0.097090498 -0.80299997
0.01011653 0.096848682 -0.801
0.011615144 0.096727774 -0.80000001
0.013093571 0.09648595 -0.79799998
0.014564443 0.096244134 -0.796
0.016068131 0.096244134 -0.796
0.017571818 0.096244134 -0.796
0.019027578 0.096002318 -0.79400003
0.020527488 0.096002318 -0.79400003
0.022027398 0.096002318 -0.79400003
0.023527307 0.096002318 -0.79400003
0.025090257 0.096244134 -0.796
0.026593944 0.096244134 -0.796
0.028097631 0.096244134 -0.796
0.029675694 0.09648595 -0.79799998
0.031261314 0.096727774 -0.80000001
0.032813523 0.096848682 -0.801
0.034412365 0.097090498 -0.80299997
0.036018763 0.097332321 -0.80500001
0.037539452 0.097332321 -0.80500001
0.039060142 0.097332321 -0.80500001
0.040580831 0.097332321 -0.80500001
0.042101521 0.097332321 -0.80500001
0.043730587 0.097574137 -0.80699998
0.045255054 0.097574137 -0.80699998
0.046895459 0.097815961 -0.80900002
0.048423704 0.097815961 -0.80900002
0.050075438 0.098057777 -0.81099999
0.05160746 0.098057777 -0.81099999
0.053139485 0.098057777 -0.81099999
0.054806337 0.0982996 -0.81300002
0.056480739 0.098541416 -0.815
0.058020316 0.098541416 -0.815
0.059706055 0.098783232 -0.81699997
0.061399352 0.099025056 -0.81900001
0.062946491 0.099025056 -0.81900001
0.064651117 0.099266872 -0.82099998
0.06620203 0.099266872 -0.82099998
0.067917995 0.099508695 -0.82300001
0.069641516 0.099750511 -0.82499999
0.071199983 0.099750511 -0.82499999
0.072934844 0.099992335 -0.82700002
0.074497089 0.099992335 -0.82700002
0.076059341 0.099992335 -0.82700002
0.077621587 0.099992335 -0.82700002
0.079183832 0.099992335 -0.82700002
0.080941357 0.10023415 -0.829
0.082507379 0.10023415 -0.829
0.084073409 0.10023415 -0.829
0.085639432 0.10023415 -0.829
0.087205462 0.10023415 -0.829
0.088771485 0.10023415 -0.829
0.090555452 0.10047597 -0.83099997
0.0010429145 0.095843285 -0.80500001
0.0025636035 0.095843285 -0.80500001
0.0040842928 0.095843285 -0.80500001
0.0055910563 0.095605157 -0.80299997
0.007107967 0.095605157 -0.80299997
0.0086248778 0.095605157 -0.80299997
0.01011653 0.095367044 -0.801
0.011615144 0.095247984 -0.80000001
0.013093571 0.095009856 -0.79799998
0.014601037 0.095009856 -0.79799998
0.016068131 0.094771743 -0.796
0.017571818 0.094771743 -0.796
0.019075505 0.094771743 -0.796
0.020579195 0.094771743 -0.796
0.022082882 0.094771743 -0.796
0.023586569 0.094771743 -0.796
0.025090257 0.094771743 -0.796
0.026593944 0.094771743 -0.796
0.028168228 0.095009856 -0.79799998
0.02975007 0.095247984 -0.80000001
0.031300392 0.095367044 -0.801
0.032895453 0.095605157 -0.80299997
0.034498077 0.095843285 -0.80500001
0.036018763 0.095843285 -0.80500001
0.037539452 0.095843285 -0.80500001
0.039060142 0.095843285 -0.80500001
0.040681653 0.096081398 -0.80699998
0.04220612 0.096081398 -0.80699998
0.043730587 0.096081398 -0.80699998
0.045367211 0.096319519 -0.80900002
0.046895459 0.096319519 -0.80900002
0.048543416 0.09655764 -0.81099999
0.050075438 0.09655764 -0.81099999
0.05160746 0.09655764 -0.81099999
0.053270534 0.09679576 -0.81300002
0.054806337 0.09679576 -0.81300002
0.056480739 0.097033881 -0.815
0.058162697 0.097271994 -0.81699997
0.059852216 0.097510122 -0.81900001
0.061399352 0.097510122 -0.81900001
0.063100204 0.097748235 -0.82099998
0.064651117 0.097748235 -0.82099998
0.066363305 0.097986363 -0.82300001
0.06808304 0.098224476 -0.82499999
0.069641516 0.098224476 -0.82499999
0.071372591 0.098462604 -0.82700002
0.072934844 0.098462604 -0.82700002
0.074497089 0.098462604 -0.82700002
0.076059341 0.098462604 -0.82700002
0.077809304 0.098700717 -0.829
0.079375327 0.098700717 -0.829
0.080941357 0.098700717 -0.829
0.082507379 0.098700717 -0.829
0.084276237 0.098938838 -0.83099997
0.085846044 0.098938838 -0.83099997
0.087415844 0.098938838 -0.83099997
0.088985652 0.098938838 -0.83099997
0.090773404 0.099176958 -0.833
0.0010429145 0.094354242 -0.80500001
0.0025636035 0.094354242 -0.80500001
0.0040741451 0.094119817 -0.80299997
0.0055910563 0.094119817 -0.80299997
0.007107967 0.094119817 -0.80299997
0.0086033968 0.093885399 -0.801
0.01011653 0.093885399 -0.801
0.011615144 0.093768187 -0.80000001
0.013093571 0.093533769 -0.79799998
0.014601037 0.093533769 -0.79799998
0.016108502 0.093533769 -0.79799998
0.017571818 0.093299352 -0.796
0.019075505 0.093299352 -0.796
0.020579195 0.093299352 -0.796
0.022082882 0.093299352 -0.796
0.023586569 0.093299352 -0.796
0.025153296 0.093533769 -0.79799998
0.026660763 0.093533769 -0.79799998
0.028238826 0.093768187 -0.80000001
0.029787257 0.093885399 -0.801
0.031378541 0.094119817 -0.80299997
0.032977387 0.094354242 -0.80500001
0.034498077 0.094354242 -0.80500001
0.036018763 0.094354242 -0.80500001
0.037632719 0.09458866 -0.80699998
0.039157186 0.09458866 -0.80699998
0.040681653 0.09458866 -0.80699998
0.042310722 0.094823085 -0.80900002
0.043838967 0.094823085 -0.80900002
0.045367211 0.094823085 -0.80900002
0.04701139 0.095057502 -0.81099999
0.048543416 0.095057502 -0.81099999
0.050075438 0.095057502 -0.81099999
0.051734731 0.095291927 -0.81300002
0.053270534 0.095291927 -0.81300002
0.054941159 0.095526345 -0.815
0.056619339 0.095760763 -0.81699997
0.058305081 0.09599518 -0.81900001
0.059852216 0.09599518 -0.81900001
0.061549287 0.096229598 -0.82099998
0.063100204 0.096229598 -0.82099998
0.064808615 0.096464023 -0.82300001
0.066524573 0.096698441 -0.82499999
0.068248093 0.096932866 -0.82700002
0.069810346 0.096932866 -0.82700002
0.071372591 0.096932866 -0.82700002
0.072934844 0.096932866 -0.82700002
0.074677251 0.097167283 -0.829
0.076243274 0.097167283 -0.829
0.077809304 0.097167283 -0.829
0.079375327 0.097167283 -0.829
0.081136629 0.097401701 -0.83099997
0.082706429 0.097401701 -0.83099997
0.084479071 0.097636126 -0.833
0.086052656 0.097636126 -0.833
0.087626234 0.097636126 -0.833
0.089199819 0.097636126 -0.833
0.090991341 0.097870544 -0.83499998
0.0010429145 0.092865199 -0.80500001
0.0025636035 0.092865199 -0.80500001
0.0040741451 0.092634477 -0.80299997
0.0055910563 0.092634477 -0.80299997
0.007107967 0.092634477 -0.80299997
0.0086033968 0.092403755 -0.801
0.01011653 0.092403755 -0.801
0.011615144 0.092288397 -0.80000001
0.013093571 0.092057675 -0.79799998
0.014601037 0.092057675 -0.79799998
0.016108502 0.092057675 -0.79799998
0.017571818 0.091826953 -0.796
0.019075505 0.091826953 -0.796
0.020579195 0.091826953 -0.796
0.022082882 0.091826953 -0.796
0.023645831 0.092057675 -0.79799998
0.025153296 0.092057675 -0.79799998
0.026660763 0.092057675 -0.79799998
0.028274124 0.092403755 -0.801
0.029861631 0.092634477 -0.80299997
0.031378541 0.092634477 -0.80299997
0.032977387 0.092865199 -0.80500001
0.034498077 0.092865199 -0.80500001
0.036108252 0.093095921 -0.80699998
0.037632719 0.093095921 -0.80699998
0.03925423 0.093326643 -0.80900002
0.040782478 0.093326643 -0.80900002
0.042310722 0.093326643 -0.80900002
0.043947343 0.093557358 -0.81099999
0.045479368 0.093557358 -0.81099999
0.04701139 0.093557358 -0.81099999
0.048663128 0.093788087 -0.81300002
0.050198931 0.093788087 -0.81300002
0.051734731 0.093788087 -0.81300002
0.053401578 0.094018802 -0.815
0.055075981 0.094249524 -0.81699997
0.056757946 0.094480246 -0.81900001
0.058305081 0.094480246 -0.81900001
0.059998374 0.094710968 -0.82099998
0.061549287 0.094710968 -0.82099998
0.063253917 0.094941691 -0.82300001
0.064966105 0.095172405 -0.82499999
0.066685848 0.095403135 -0.82700002
0.068248093 0.095403135 -0.82700002
0.069810346 0.095403135 -0.82700002
0.071545199 0.09563385 -0.829
0.073111221 0.09563385 -0.829
0.074677251 0.09563385 -0.829
0.076243274 0.09563385 -0.829
0.077809304 0.09563385 -0.829
0.079566821 0.095864572 -0.83099997
0.081136629 0.095864572 -0.83099997
0.082905486 0.096095294 -0.833
0.084479071 0.096095294 -0.833
0.086052656 0.096095294 -0.833
0.087626234 0.096095294 -0.833
0.089413978 0.096326008 -0.83499998
0.091209292 0.096556738 -0.83700001
0.0025572341 0.091149136 -0.80299997
0.0040741451 0.091149136 -0.80299997
0.0055910563 0.091149136 -0.80299997
0.007090264 0.090922117 -0.801
0.0086033968 0.090922117 -0.801
0.0101039 0.090808608 -0.80000001
0.011586105 0.090581581 -0.79799998
0.013093571 0.090581581 -0.79799998
0.014601037 0.090581581 -0.79799998
0.016108502 0.090581581 -0.79799998
0.017615968 0.090581581 -0.79799998
0.019075505 0.090354562 -0.796
0.020579195 0.090354562 -0.796
0.022138365 0.090581581 -0.79799998
0.023645831 0.090581581 -0.79799998
0.025153296 0.090581581 -0.79799998
0.026727583 0.090808608 -0.80000001
0.028274124 0.090922117 -0.801
0.029861631 0.091149136 -0.80299997
0.031456698 0.091376156 -0.80500001
0.032977387 0.091376156 -0.80500001
0.034583785 0.091603175 -0.80699998
0.036197741 0.091830201 -0.80900002
0.037725985 0.091830201 -0.80900002
0.039351273 0.092057221 -0.81099999
0.040883295 0.092057221 -0.81099999
0.042415321 0.092057221 -0.81099999
0.043947343 0.092057221 -0.81099999
0.045479368 0.092057221 -0.81099999
0.047127329 0.092284247 -0.81300002
0.048663128 0.092284247 -0.81300002
0.050198931 0.092284247 -0.81300002
0.051861998 0.092511266 -0.815
0.053532623 0.092738286 -0.81699997
0.05521081 0.092965312 -0.81900001
0.056757946 0.092965312 -0.81900001
0.058447462 0.093192331 -0.82099998
0.059998374 0.093192331 -0.82099998
0.061699226 0.093419351 -0.82300001
0.06340763 0.09364637 -0.82499999
0.065123603 0.093873397 -0.82700002
0.066685848 0.093873397 -0.82700002
0.068248093 0.093873397 -0.82700002
0.069979168 0.094100416 -0.829
0.071545199 0.094100416 -0.829
0.073111221 0.094100416 -0.829
0.074857406 0.094327435 -0.83099997
0.076427214 0.094327435 -0.83099997
0.077997021 0.094327435 -0.83099997
0.079566821 0.094327435 -0.83099997
0.081331909 0.094554462 -0.833
0.082905486 0.094554462 -0.833
0.084681898 0.094781481 -0.83499998
0.086259261 0.094781481 -0.83499998
0.087836623 0.094781481 -0.83499998
0.089628153 0.095008507 -0.83700001
0.091427229 0.095235519 -0.83899999
0.0025572341 0.089663796 -0.80299997
0.0040741451 0.089663796 -0.80299997
0.0055910563 0.089663796 -0.80299997
0.007090264 0.089440472 -0.801
0.0085926559 0.089328811 -0.80000001
0.0101039 0.089328811 -0.80000001
0.011586105 0.089105487 -0.79799998
0.013093571 0.089105487 -0.79799998
0.014601037 0.089105487 -0.79799998
0.016108502 0.089105487 -0.79799998
0.017615968 0.089105487 -0.79799998
0.019123433 0.089105487 -0.79799998
0.0206309 0.089105487 -0.79799998
0.022138365 0.089105487 -0.79799998
0.023645831 0.089105487 -0.79799998
0.025216339 0.089328811 -0.80000001
0.026760992 0.089440472 -0.801
0.028344721 0.089663796 -0.80299997
0.029936008 0.08988712 -0.80500001
0.031456698 0.08988712 -0.80500001
0.033059318 0.090110436 -0.80699998
0.034669496 0.09033376 -0.80900002
0.036197741 0.09033376 -0.80900002
0.037819251 0.090557083 -0.81099999
0.039351273 0.090557083 -0.81099999
0.040883295 0.090557083 -0.81099999
0.042519923 0.090780407 -0.81300002
0.044055723 0.090780407 -0.81300002
0.045591526 0.090780407 -0.81300002
0.047127329 0.090780407 -0.81300002
0.048663128 0.090780407 -0.81300002
0.050322421 0.091003731 -0.815
0.051861998 0.091003731 -0.815
0.053663671 0.091450371 -0.81900001
0.05521081 0.091450371 -0.81900001
0.056896545 0.091673695 -0.82099998
0.058447462 0.091673695 -0.82099998
0.060144536 0.091897018 -0.82300001
0.061849162 0.092120335 -0.82499999
0.06356135 0.092343666 -0.82700002
0.065123603 0.092343666 -0.82700002
0.066685848 0.092343666 -0.82700002
0.068413146 0.092566982 -0.829
0.069979168 0.092566982 -0.829
0.071717799 0.092790298 -0.83099997
0.073287606 0.092790298 -0.83099997
0.074857406 0.092790298 -0.83099997
0.076427214 0.092790298 -0.83099997
0.078184739 0.093013629 -0.833
0.079758324 0.093013629 -0.833
0.081331909 0.093013629 -0.833
0.083104536 0.093236946 -0.83499998
0.084681898 0.093236946 -0.83499998
0.086465873 0.093460269 -0.83700001
0.088047013 0.093460269 -0.83700001
0.089628153 0.093460269 -0.83700001
0.0025572341 0.088178448 -0.80299997
0.0040741451 0.088178448 -0.80299997
0.0055910563 0.088178448 -0.80299997
0.007090264 0.087958835 -0.801
0.0085926559 0.087849021 -0.80000001
0.0101039 0.087849021 -0.80000001
0.011586105 0.087629393 -0.79799998
0.013093571 0.087629393 -0.79799998
0.014601037 0.087629393 -0.79799998
0.016108502 0.087629393 -0.79799998
0.017615968 0.087629393 -0.79799998
0.019123433 0.087629393 -0.79799998
0.0206309 0.087629393 -0.79799998
0.022138365 0.087629393 -0.79799998
0.023705095 0.087849021 -0.80000001
0.025247859 0.087958835 -0.801
0.02682781 0.088178448 -0.80299997
0.028415319 0.088398077 -0.80500001
0.029936008 0.088398077 -0.80500001
0.031534851 0.088617697 -0.80699998
0.033141248 0.088837326 -0.80900002
0.034755204 0.089056946 -0.81099999
0.036287226 0.089056946 -0.81099999
0.037819251 0.089056946 -0.81099999
0.039448317 0.089276567 -0.81300002
0.04098412 0.089276567 -0.81300002
0.042519923 0.089276567 -0.81300002
0.044055723 0.089276567 -0.81300002
0.045703679 0.089496188 -0.815
0.04724326 0.089496188 -0.815
0.04878284 0.089496188 -0.815
0.050322421 0.089496188 -0.815
0.051989265 0.089715809 -0.81699997
0.053663671 0.089935437 -0.81900001
0.055345632 0.090155058 -0.82099998
0.056896545 0.090155058 -0.82099998
0.058589842 0.090374678 -0.82300001
0.060290694 0.090594299 -0.82499999
0.061999101 0.090813927 -0.82700002
0.06356135 0.090813927 -0.82700002
0.065281093 0.091033548 -0.829
0.066847116 0.091033548 -0.829
0.068413146 0.091033548 -0.829
0.070147999 0.091253169 -0.83099997
0.071717799 0.091253169 -0.83099997
0.073463991 0.09147279 -0.833
0.075037576 0.09147279 -0.833
0.076611161 0.09147279 -0.833
0.078184739 0.09147279 -0.833
0.079949819 0.09169241 -0.83499998
0.081527181 0.09169241 -0.83499998
0.083104536 0.09169241 -0.83499998
0.0025572341 0.086693108 -0.80299997
0.0040741451 0.086693108 -0.80299997
0.0055910563 0.086693108 -0.80299997
0.0070814122 0.086369231 -0.80000001
0.0085926559 0.086369231 -0.80000001
0.0101039 0.086369231 -0.80000001
0.011586105 0.086153306 -0.79799998
0.013093571 0.086153306 -0.79799998
0.014601037 0.086153306 -0.79799998
0.016108502 0.086153306 -0.79799998
0.017615968 0.086153306 -0.79799998
0.019123433 0.086153306 -0.79799998
0.0206309 0.086153306 -0.79799998
0.022193851 0.086369231 -0.80000001
0.023734726 0.08647719 -0.801
0.025310898 0.086693108 -0.80299997
0.026894629 0.086909033 -0.80500001
0.028415319 0.086909033 -0.80500001
0.030010382 0.087124959 -0.80699998
0.031613003 0.087340884 -0.80900002
0.033223178 0.087556802 -0.81099999
0.034755204 0.087556802 -0.81099999
0.036287226 0.087556802 -0.81099999
0.037912518 0.087772727 -0.81300002
0.039448317 0.087772727 -0.81300002
0.04098412 0.087772727 -0.81300002
0.042624522 0.087988652 -0.815
0.044164099 0.087988652 -0.815
0.045703679 0.087988652 -0.815
0.04724326 0.087988652 -0.815
0.048902549 0.08820457 -0.81699997
0.050445907 0.08820457 -0.81699997
0.052116536 0.088420495 -0.81900001
0.053663671 0.088420495 -0.81900001
0.055345632 0.088636421 -0.82099998
0.057035152 0.088852346 -0.82300001
0.058732223 0.089068264 -0.82499999
0.060436856 0.089284189 -0.82700002
0.061999101 0.089284189 -0.82700002
0.063715063 0.089500114 -0.829
0.065281093 0.089500114 -0.829
0.066847116 0.089500114 -0.829
0.068578191 0.089716032 -0.83099997
0.070147999 0.089716032 -0.83099997
0.071890406 0.089931957 -0.833
0.073463991 0.089931957 -0.833
0.0040741451 0.085207768 -0.80299997
0.0055910563 0.085207768 -0.80299997
0.0070814122 0.084889434 -0.80000001
0.0085926559 0.084889434 -0.80000001
0.0101039 0.084889434 -0.80000001
0.011615144 0.084889434 -0.80000001
0.013093571 0.084677212 -0.79799998
0.014601037 0.084677212 -0.79799998
0.016108502 0.084677212 -0.79799998
0.017615968 0.084677212 -0.79799998
0.019123433 0.084677212 -0.79799998
0.020682607 0.084889434 -0.80000001
0.022221593 0.084995545 -0.801
0.023793988 0.085207768 -0.80299997
0.025310898 0.085207768 -0.80299997
0.026894629 0.085419998 -0.80500001
0.028485915 0.08563222 -0.80699998
0.030084759 0.085844442 -0.80900002
0.031691156 0.086056665 -0.81099999
0.033223178 0.086056665 -0.81099999
0.034755204 0.086056665 -0.81099999
0.036376715 0.086268894 -0.81300002
0.037912518 0.086268894 -0.81300002
0.039448317 0.086268894 -0.81300002
0.041084941 0.086481109 -0.815
0.042624522 0.086481109 -0.815
0.044272479 0.086693332 -0.81699997
0.045815837 0.086693332 -0.81699997
0.047359195 0.086693332 -0.81699997
0.048902549 0.086693332 -0.81699997
0.0505694 0.086905561 -0.81900001
0.052116536 0.086905561 -0.81900001
0.053794719 0.087117784 -0.82099998
0.055480458 0.087330006 -0.82300001
0.057173751 0.087542228 -0.82499999
0.058874607 0.087754458 -0.82700002
0.060436856 0.087754458 -0.82700002
0.062149037 0.087966681 -0.829
0.063715063 0.087966681 -0.829
0.065281093 0.087966681 -0.829
0.067008391 0.088178895 -0.83099997
0.068578191 0.088178895 -0.83099997
0.0040741451 0.083722427 -0.80299997
0.0055910563 0.083722427 -0.80299997
0.007090264 0.083513908 -0.801
0.0085926559 0.083409645 -0.80000001
0.0101039 0.083409645 -0.80000001
0.011615144 0.083409645 -0.80000001
0.013126387 0.083409645 -0.80000001
0.014637631 0.083409645 -0.80000001
0.016148875 0.083409645 -0.80000001
0.017660119 0.083409645 -0.80000001
0.019171363 0.083409645 -0.80000001
0.02070846 0.083513908 -0.801
0.022277078 0.083722427 -0.80299997
0.023793988 0.083722427 -0.80299997
0.025373941 0.083930954 -0.80500001
0.026894629 0.083930954 -0.80500001
0.028556513 0.084348001 -0.80900002
0.030159133 0.084556527 -0.81099999
0.031691156 0.084556527 -0.81099999
0.033305112 0.084765054 -0.81300002
0.034840915 0.084765054 -0.81300002
0.036376715 0.084765054 -0.81300002
0.03800578 0.084973574 -0.815
0.039545361 0.084973574 -0.815
0.041084941 0.084973574 -0.815
0.042729121 0.085182093 -0.81699997
0.044272479 0.085182093 -0.81699997
0.045927994 0.08539062 -0.81900001
0.047475129 0.08539062 -0.81900001
0.049022265 0.08539062 -0.81900001
0.0505694 0.08539062 -0.81900001
0.052243803 0.085599147 -0.82099998
0.053925768 0.085807674 -0.82300001
0.055615284 0.086016193 -0.82499999
0.057312358 0.08622472 -0.82700002
0.058874607 0.08622472 -0.82700002
0.06058301 0.086433247 -0.829
0.062149037 0.086433247 -0.829
0.063715063 0.086433247 -0.829
0.0040741451 0.082237087 -0.80299997
0.0055910563 0.082237087 -0.80299997
0.007090264 0.082032263 -0.801
0.0086033968 0.082032263 -0.801
0.0101039 0.081929855 -0.80000001
0.011615144 0.081929855 -0.80000001
0.013126387 0.081929855 -0.80000001
0.014637631 0.081929855 -0.80000001
0.016148875 0.081929855 -0.80000001
0.017660119 0.081929855 -0.80000001
0.019195328 0.082032263 -0.801
0.02070846 0.082032263 -0.801
0.022277078 0.082237087 -0.80299997
0.023853252 0.082441911 -0.80500001
0.025373941 0.082441911 -0.80500001
0.027028268 0.082851566 -0.80900002
0.028556513 0.082851566 -0.80900002
0.030159133 0.083056383 -0.81099999
0.031769309 0.083261214 -0.81300002
0.033305112 0.083261214 -0.81300002
0.034926623 0.083466038 -0.815
0.036466204 0.083466038 -0.815
0.03800578 0.083466038 -0.815
0.039642405 0.083670862 -0.81699997
0.041185763 0.083670862 -0.81699997
0.042729121 0.083670862 -0.81699997
0.044380859 0.083875686 -0.81900001
0.045927994 0.083875686 -0.81900001
0.047475129 0.083875686 -0.81900001
0.049022265 0.083875686 -0.81900001
0.05069289 0.08408051 -0.82099998
0.052243803 0.08408051 -0.82099998
0.053925768 0.084285334 -0.82300001
0.055615284 0.084490158 -0.82499999
0.057312358 0.084694989 -0.82700002
0.0040741451 0.080751747 -0.80299997
0.0055910563 0.080751747 -0.80299997
0.007090264 0.080550626 -0.801
0.0086033968 0.080550626 -0.801
0.01011653 0.080550626 -0.801
0.011615144 0.080450058 -0.80000001
0.013126387 0.080450058 -0.80000001
0.014637631 0.080450058 -0.80000001
0.016169062 0.080550626 -0.801
0.017682195 0.080550626 -0.801
0.019195328 0.080550626 -0.801
0.020760166 0.080751747 -0.80299997
0.022332562 0.080952875 -0.80500001
0.023853252 0.080952875 -0.80500001
0.025500022 0.081355125 -0.80900002
0.027028268 0.081355125 -0.80900002
0.028627109 0.081556246 -0.81099999
0.03023351 0.081757374 -0.81300002
0.031769309 0.081757374 -0.81300002
0.033387043 0.081958495 -0.815
0.034926623 0.081958495 -0.815
0.036555689 0.082159624 -0.81699997
0.038099047 0.082159624 -0.81699997
0.039642405 0.082159624 -0.81699997
0.041185763 0.082159624 -0.81699997
0.042833723 0.082360752 -0.81900001
0.044380859 0.082360752 -0.81900001
0.045927994 0.082360752 -0.81900001
0.047475129 0.082360752 -0.81900001
0.049141977 0.082561873 -0.82099998
0.05069289 0.082561873 -0.82099998
0.052371074 0.082763001 -0.82300001
0.054056812 0.082964122 -0.82499999
0.0040741451 0.079266407 -0.80299997
0.0055910563 0.079266407 -0.80299997
0.007107967 0.079266407 -0.80299997
0.0086033968 0.079068981 -0.801
0.01011653 0.079068981 -0.801
0.011629662 0.079068981 -0.801
0.013142795 0.079068981 -0.801
0.014655928 0.079068981 -0.801
0.016169062 0.079068981 -0.801
0.017726343 0.079266407 -0.80299997
0.019243255 0.079266407 -0.80299997
0.020811873 0.079463832 -0.80500001
0.022332562 0.079463832 -0.80500001
0.023971777 0.079858683 -0.80900002
0.025500022 0.079858683 -0.80900002
0.027095087 0.080056109 -0.81099999
0.028627109 0.080056109 -0.81099999
0.03023351 0.080253534 -0.81300002
0.031769309 0.080253534 -0.81300002
0.033387043 0.08045096 -0.815
0.035012331 0.080648385 -0.81699997
0.036555689 0.080648385 -0.81699997
0.038099047 0.080648385 -0.81699997
0.039642405 0.080648385 -0.81699997
0.041286584 0.08084581 -0.81900001
0.042833723 0.08084581 -0.81900001
0.044380859 0.08084581 -0.81900001
0.045927994 0.08084581 -0.81900001
0.04759106 0.081043236 -0.82099998
0.049141977 0.081043236 -0.82099998
0.050816383 0.081240661 -0.82300001
0.0040842928 0.077974789 -0.80500001
0.0055910563 0.077781059 -0.80299997
0.007107967 0.077781059 -0.80299997
0.0086248778 0.077781059 -0.80299997
0.01011653 0.077587336 -0.801
0.011629662 0.077587336 -0.801
0.013175611 0.077781059 -0.80299997
0.014692522 0.077781059 -0.80299997
0.016249806 0.077974789 -0.80500001
0.017770495 0.077974789 -0.80500001
0.019291185 0.077974789 -0.80500001
0.02086358 0.078168519 -0.80699998
0.022443531 0.078362241 -0.80900002
0.023971777 0.078362241 -0.80900002
0.025563063 0.078555971 -0.81099999
0.027095087 0.078555971 -0.81099999
0.028697709 0.078749701 -0.81300002
0.03023351 0.078749701 -0.81300002
0.031847462 0.078943424 -0.815
0.033387043 0.078943424 -0.815
0.035012331 0.079137146 -0.81699997
0.036555689 0.079137146 -0.81699997
0.038099047 0.079137146 -0.81699997
0.039642405 0.079137146 -0.81699997
0.041286584 0.079330876 -0.81900001
0.042833723 0.079330876 -0.81900001
0.044380859 0.079330876 -0.81900001
0.046040148 0.079524599 -0.82099998
0.04759106 0.079524599 -0.82099998
0.00409444 0.076675773 -0.80699998
0.0056049819 0.076485753 -0.80500001
0.007107967 0.076295719 -0.80299997
0.0086248778 0.076295719 -0.80299997
0.010141789 0.076295719 -0.80299997
0.0116587 0.076295719 -0.80299997
0.013208427 0.076485753 -0.80500001
0.014729117 0.076485753 -0.80500001
0.016249806 0.076485753 -0.80500001
0.017814646 0.076675773 -0.80699998
0.01938704 0.076865807 -0.80900002
0.020915287 0.076865807 -0.80900002
0.022499016 0.077055827 -0.81099999
0.024031039 0.077055827 -0.81099999
0.025563063 0.077055827 -0.81099999
0.027161906 0.077245861 -0.81300002
0.028697709 0.077245861 -0.81300002
0.03023351 0.077245861 -0.81300002
0.031847462 0.077435881 -0.815
0.033387043 0.077435881 -0.815
0.035012331 0.077625908 -0.81699997
0.036555689 0.077625908 -0.81699997
0.038099047 0.077625908 -0.81699997
0.039739449 0.077815935 -0.81900001
0.041286584 0.077815935 -0.81900001
0.042833723 0.077815935 -0.81900001
0.0041045872 0.075369366 -0.80900002
0.0056049819 0.07499671 -0.80500001
0.007125671 0.07499671 -0.80500001
0.0086463597 0.07499671 -0.80500001
0.010167049 0.07499671 -0.80500001
0.011687739 0.07499671 -0.80500001
0.013241243 0.075183034 -0.80699998
0.014765711 0.075183034 -0.80699998
0.016330549 0.075369366 -0.80900002
0.017858796 0.075369366 -0.80900002
0.019434968 0.07555569 -0.81099999
0.020966992 0.07555569 -0.81099999
0.022499016 0.07555569 -0.81099999
0.024090303 0.075742021 -0.81300002
0.025626104 0.075742021 -0.81300002
0.027161906 0.075742021 -0.81300002
0.028697709 0.075742021 -0.81300002
0.03023351 0.075742021 -0.81300002
0.031847462 0.075928345 -0.815
0.033468973 0.076114669 -0.81699997
0.035012331 0.076114669 -0.81699997
0.036555689 0.076114669 -0.81699997
0.038099047 0.076114669 -0.81699997
0.0041045872 0.073872924 -0.80900002
0.005618907 0.073690295 -0.80699998
0.007125671 0.073507667 -0.80500001
0.0086463597 0.073507667 -0.80500001
0.010192309 0.073690295 -0.80699998
0.011716776 0.073690295 -0.80699998
0.01327406 0.073872924 -0.80900002
0.014802305 0.073872924 -0.80900002
0.016330549 0.073872924 -0.80900002
0.017902946 0.074055552 -0.81099999
0.019434968 0.074055552 -0.81099999
0.020966992 0.074055552 -0.81099999
0.022554502 0.074238181 -0.81300002
0.024090303 0.074238181 -0.81300002
0.025626104 0.074238181 -0.81300002
0.027161906 0.074238181 -0.81300002
0.028697709 0.074238181 -0.81300002
0.030307883 0.07442081 -0.815
0.031847462 0.07442081 -0.815
0.033468973 0.074603431 -0.81699997
0.035012331 0.074603431 -0.81699997
0.036555689 0.074603431 -0.81699997
0.0025827112 0.072555415 -0.81099999
0.0041045872 0.072376482 -0.80900002
0.0056328326 0.072376482 -0.80900002
0.0071433741 0.072197556 -0.80699998
0.0086678416 0.072197556 -0.80699998
