# .PCD v0.7 - Point Cloud Data file format
VERSION 0.7
FIELDS x y z
SIZE 4 4 4
TYPE F F F
COUNT 1 1 1
WIDTH 1403
HEIGHT 1
VIEWPOINT 0 0 0 1 0 0 0
POINTS 1403
DATA ascii
0.042809375 0.12620586 -0.79000002
0.04430173 0.12620586 -0.79000002
0.045678146 0.12588635 -0.78799999
0.04716672 0.12588635 -0.78799999
0.048655294 0.12588635 -0.78799999
0.050143871 0.12588635 -0.78799999
0.051632445 0.12588635 -0.78799999
0.053121023 0.12588635 -0.78799999
0.054609597 0.12588635 -0.78799999
0.056098171 0.12588635 -0.78799999
0.057586748 0.12588635 -0.78799999
0.059075322 0.12588635 -0.78799999
0.060563896 0.12588635 -0.78799999
0.062052473 0.12588635 -0.78799999
0.0088396948 0.12995543 -0.82300001
0.010369127 0.12963961 -0.82099998
0.011891004 0.1293238 -0.81900001
0.013438139 0.1293238 -0.81900001
0.01494868 0.129008 -0.81699997
0.016492039 0.129008 -0.81699997
0.017947096 0.12837638 -0.81300002
0.019482898 0.12837638 -0.81300002
0.020966992 0.12806056 -0.81099999
0.022443531 0.12774476 -0.80900002
0.023912514 0.12742895 -0.80699998
0.025373941 0.12711313 -0.80500001
0.026894629 0.12711313 -0.80500001
0.028344721 0.12679732 -0.80299997
0.029861631 0.12679732 -0.80299997
0.031300392 0.12648152 -0.801
0.03277256 0.12632361 -0.80000001
0.03419809 0.12600781 -0.79799998
0.035705555 0.12600781 -0.79799998
0.037119757 0.125692 -0.796
0.038623445 0.125692 -0.796
0.040026311 0.12537619 -0.79400003
0.041421622 0.12506038 -0.792
0.042809375 0.12474457 -0.79000002
0.04430173 0.12474457 -0.79000002
0.045678146 0.12442876 -0.78799999
0.04716672 0.12442876 -0.78799999
0.048655294 0.12442876 -0.78799999
0.050143871 0.12442876 -0.78799999
0.051566925 0.12427086 -0.787
0.053121023 0.12442876 -0.78799999
0.054609597 0.12442876 -0.78799999
0.056098171 0.12442876 -0.78799999
0.057586748 0.12442876 -0.78799999
0.059075322 0.12442876 -0.78799999
0.060563896 0.12442876 -0.78799999
0.062052473 0.12442876 -0.78799999
0.0073204101 0.1290573 -0.82700002
0.0088396948 0.12843308 -0.82300001
0.010369127 0.12812097 -0.82099998
0.01192004 0.12812097 -0.82099998
0.013438139 0.12780887 -0.81900001
0.014985275 0.12780887 -0.81900001
0.016492039 0.12749675 -0.81699997
0.017991247 0.12718464 -0.815
0.019482898 0.12687254 -0.81300002
0.020966992 0.12656042 -0.81099999
0.022499016 0.12656042 -0.81099999
0.023971777 0.12624831 -0.80900002
0.025436981 0.12593621 -0.80699998
0.026894629 0.12562411 -0.80500001
0.028344721 0.12531199 -0.80299997
0.029861631 0.12531199 -0.80299997
0.031300392 0.12499988 -0.801
0.032813523 0.12499988 -0.801
0.034283802 0.12484383 -0.80000001
0.035705555 0.12453171 -0.79799998
0.037119757 0.1242196 -0.796
0.038623445 0.1242196 -0.796
0.040026311 0.1239075 -0.79400003
0.041421622 0.12359539 -0.792
0.042809375 0.12328328 -0.79000002
0.04430173 0.12328328 -0.79000002
0.045678146 0.12297116 -0.78799999
0.04716672 0.12297116 -0.78799999
0.048655294 0.12297116 -0.78799999
0.050080236 0.12281511 -0.787
0.051566925 0.12281511 -0.787
0.05305361 0.12281511 -0.787
0.054609597 0.12297116 -0.78799999
0.056098171 0.12297116 -0.78799999
0.057586748 0.12297116 -0.78799999
0.059075322 0.12297116 -0.78799999
0.060563896 0.12297116 -0.78799999
0.062052473 0.12297116 -0.78799999
0.0073204101 0.12752756 -0.82700002
0.0088611767 0.12721916 -0.82499999
0.010394387 0.12691075 -0.82300001
0.01192004 0.12660234 -0.82099998
0.013470955 0.12660234 -0.82099998
0.014985275 0.12629393 -0.81900001
0.016492039 0.12598552 -0.81699997
0.017991247 0.12567711 -0.815
0.019482898 0.1253687 -0.81300002
0.021018699 0.1253687 -0.81300002
0.022499016 0.12506029 -0.81099999
0.023971777 0.12475188 -0.80900002
0.025436981 0.12444346 -0.80699998
0.026894629 0.12413505 -0.80500001
0.028415319 0.12413505 -0.80500001
0.029861631 0.12382665 -0.80299997
0.031378541 0.12382665 -0.80299997
0.032813523 0.12351824 -0.801
0.034283802 0.12336403 -0.80000001
0.035705555 0.12305561 -0.79799998
0.037119757 0.12274721 -0.796
0.038623445 0.12274721 -0.796
0.040026311 0.1224388 -0.79400003
0.041421622 0.12213039 -0.792
0.042809375 0.12182198 -0.79000002
0.04430173 0.12182198 -0.79000002
0.045678146 0.12151357 -0.78799999
0.04716672 0.12151357 -0.78799999
0.048655294 0.12151357 -0.78799999
0.050143871 0.12151357 -0.78799999
0.051566925 0.12135936 -0.787
0.053121023 0.12151357 -0.78799999
0.054609597 0.12151357 -0.78799999
0.056098171 0.12151357 -0.78799999
0.057586748 0.12151357 -0.78799999
0.059075322 0.12151357 -0.78799999
0.060563896 0.12151357 -0.78799999
0.062209968 0.12182198 -0.79000002
0.0057860119 0.12660725 -0.83099997
0.0073381132 0.12630254 -0.829
0.0088826586 0.12599784 -0.82700002
0.010419646 0.12569311 -0.82499999
0.011949079 0.12538841 -0.82300001
0.013470955 0.1250837 -0.82099998
0.014985275 0.12477899 -0.81900001
0.016532412 0.12477899 -0.81900001
0.018035395 0.12447427 -0.81699997
0.019530825 0.12416957 -0.815
0.021018699 0.12386486 -0.81300002
0.022499016 0.12356015 -0.81099999
0.024031039 0.12356015 -0.81099999
0.025500022 0.12325544 -0.80900002
0.026961448 0.12295073 -0.80699998
0.028415319 0.12264602 -0.80500001
0.029861631 0.1223413 -0.80299997
0.031378541 0.1223413 -0.80299997
0.032813523 0.12203659 -0.801
0.034326658 0.12203659 -0.801
0.035795044 0.12188424 -0.80000001
0.037213024 0.12157953 -0.79799998
0.038623445 0.12127482 -0.796
0.040127132 0.12127482 -0.796
0.041526221 0.12097012 -0.79400003
0.042917751 0.12066539 -0.792
0.04430173 0.12036069 -0.79000002
0.045794081 0.12036069 -0.79000002
0.04716672 0.12005597 -0.78799999
0.048655294 0.12005597 -0.78799999
0.050143871 0.12005597 -0.78799999
0.051632445 0.12005597 -0.78799999
0.053121023 0.12005597 -0.78799999
0.054609597 0.12005597 -0.78799999
0.056098171 0.12005597 -0.78799999
0.057586748 0.12005597 -0.78799999
0.059075322 0.12005597 -0.78799999
0.060717616 0.12036069 -0.79000002
0.062209968 0.12036069 -0.79000002
0.0057860119 0.12507011 -0.83099997
0.0073381132 0.12476911 -0.829
0.0088826586 0.1244681 -0.82700002
0.010419646 0.12416708 -0.82499999
0.011949079 0.12386607 -0.82300001
0.013503771 0.12386607 -0.82300001
0.015021869 0.12356506 -0.82099998
0.016532412 0.12326405 -0.81900001
0.018035395 0.12296303 -0.81699997
0.019578753 0.12296303 -0.81699997
0.021018699 0.12236102 -0.81300002
0.022554502 0.12236102 -0.81300002
0.024031039 0.12206001 -0.81099999
0.025563063 0.12206001 -0.81099999
0.027028268 0.121759 -0.80900002
0.028415319 0.12115698 -0.80500001
0.029936008 0.12115698 -0.80500001
0.031378541 0.12085596 -0.80299997
0.032895453 0.12085596 -0.80299997
0.034326658 0.12055495 -0.801
0.035839789 0.12055495 -0.801
0.03730629 0.12040445 -0.80000001
0.038720489 0.12010343 -0.79799998
0.040127132 0.11980242 -0.796
0.041630819 0.11980242 -0.796
0.043026131 0.11950142 -0.79400003
0.044413883 0.1192004 -0.792
0.045794081 0.1188994 -0.79000002
0.047286436 0.1188994 -0.79000002
0.048655294 0.11859838 -0.78799999
0.050143871 0.11859838 -0.78799999
0.051632445 0.11859838 -0.78799999
0.053121023 0.11859838 -0.78799999
0.054609597 0.11859838 -0.78799999
0.056240555 0.1188994 -0.79000002
0.05773291 0.1188994 -0.79000002
0.059225261 0.1188994 -0.79000002
0.060717616 0.1188994 -0.79000002
0.062367462 0.1192004 -0.792
0.064024866 0.11950142 -0.79400003
0.0042365021 0.1241276 -0.83499998
0.0057999375 0.1238303 -0.833
0.0073558167 0.12353298 -0.83099997
0.0089041395 0.12323567 -0.829
0.010444907 0.12293836 -0.82700002
0.011978117 0.12264105 -0.82499999
0.013503771 0.12234374 -0.82300001
0.015021869 0.12204643 -0.82099998
0.016572783 0.12204643 -0.82099998
0.018079547 0.12174912 -0.81900001
0.019578753 0.1214518 -0.81699997
0.021070406 0.12115449 -0.815
0.022554502 0.12085719 -0.81300002
0.024031039 0.12055986 -0.81099999
0.025563063 0.12055986 -0.81099999
0.027028268 0.12026256 -0.80900002
0.028485915 0.11996524 -0.80699998
0.029936008 0.11966793 -0.80500001
0.031456698 0.11966793 -0.80500001
0.032895453 0.11937062 -0.80299997
0.034412365 0.11937062 -0.80299997
0.035839789 0.11907331 -0.801
0.037352923 0.11907331 -0.801
0.038720489 0.11862734 -0.79799998
0.040227953 0.11862734 -0.79799998
0.041630819 0.11833003 -0.796
0.043134507 0.11833003 -0.796
0.044526041 0.11803272 -0.79400003
0.045910016 0.11773541 -0.792
0.047286436 0.1174381 -0.79000002
0.048778787 0.1174381 -0.79000002
0.050271142 0.1174381 -0.79000002
0.051763494 0.1174381 -0.79000002
0.053255849 0.1174381 -0.79000002
0.0547482 0.1174381 -0.79000002
0.056240555 0.1174381 -0.79000002
0.05773291 0.1174381 -0.79000002
0.059225261 0.1174381 -0.79000002
0.060871329 0.11773541 -0.792
0.062524959 0.11803272 -0.79400003
0.064024866 0.11803272 -0.79400003
0.065689825 0.11833003 -0.796
0.067193508 0.11833003 -0.796
0.068697199 0.11833003 -0.796
0.0042365021 0.12258307 -0.83499998
0.0057999375 0.12228946 -0.833
0.0073558167 0.12199584 -0.83099997
0.0089256214 0.12199584 -0.83099997
0.010470166 0.12170224 -0.829
0.012007155 0.12140863 -0.82700002
0.013536587 0.12111501 -0.82499999
0.015058463 0.1208214 -0.82300001
0.016572783 0.12052779 -0.82099998
0.018123697 0.12052779 -0.82099998
0.019626683 0.12023418 -0.81900001
0.021122111 0.11994056 -0.81699997
0.022554502 0.11935335 -0.81300002
0.024090303 0.11935335 -0.81300002
0.025563063 0.11905973 -0.81099999
0.027095087 0.11905973 -0.81099999
0.028556513 0.11876612 -0.80900002
0.030010382 0.1184725 -0.80699998
0.031456698 0.1181789 -0.80500001
0.032977387 0.1181789 -0.80500001
0.034412365 0.11788528 -0.80299997
0.035929274 0.11788528 -0.80299997
0.037352923 0.11759167 -0.801
0.038817532 0.11744487 -0.80000001
0.040227953 0.11715125 -0.79799998
0.041735418 0.11715125 -0.79799998
0.043134507 0.11685764 -0.796
0.044638198 0.11685764 -0.796
0.04602595 0.11656403 -0.79400003
0.047406144 0.11627042 -0.792
0.048778787 0.1159768 -0.79000002
0.050271142 0.1159768 -0.79000002
0.051763494 0.1159768 -0.79000002
0.053255849 0.1159768 -0.79000002
0.0547482 0.1159768 -0.79000002
0.056240555 0.1159768 -0.79000002
0.057879064 0.11627042 -0.792
0.059375197 0.11627042 -0.792
0.061025046 0.11656403 -0.79400003
0.062524959 0.11656403 -0.79400003
0.064024866 0.11656403 -0.79400003
0.065689825 0.11685764 -0.796
0.067193508 0.11685764 -0.796
0.068697199 0.11685764 -0.796
0.070200883 0.11685764 -0.796
0.0026655109 0.12132846 -0.83700001
0.0042365021 0.12103854 -0.83499998
0.0058138631 0.12103854 -0.83499998
0.0073735202 0.12074863 -0.833
0.0089256214 0.12045871 -0.83099997
0.010470166 0.12016881 -0.829
0.012036192 0.12016881 -0.829
0.013569403 0.1198789 -0.82700002
0.015095057 0.11958898 -0.82499999
0.016613156 0.11929907 -0.82300001
0.018123697 0.11900915 -0.82099998
0.01967461 0.11900915 -0.82099998
0.021173818 0.11871924 -0.81900001
0.022665469 0.11842933 -0.81699997
0.024090303 0.11784951 -0.81300002
0.025626104 0.11784951 -0.81300002
0.027095087 0.11755959 -0.81099999
0.028627109 0.11755959 -0.81099999
0.030084759 0.11726968 -0.80900002
0.031534851 0.11697976 -0.80699998
0.032977387 0.11668985 -0.80500001
0.034498077 0.11668985 -0.80500001
0.035929274 0.11639994 -0.80299997
0.037446186 0.11639994 -0.80299997
0.038866054 0.11611003 -0.801
0.040328778 0.11596508 -0.80000001
0.041735418 0.11567515 -0.79799998
0.043242887 0.11567515 -0.79799998
0.044638198 0.11538525 -0.796
0.046141885 0.11538525 -0.796
0.04752586 0.11509534 -0.79400003
0.048902277 0.11480542 -0.792
0.050398409 0.11480542 -0.792
0.051763494 0.11451551 -0.79000002
0.053255849 0.11451551 -0.79000002
0.0547482 0.11451551 -0.79000002
0.056382935 0.11480542 -0.792
0.057879064 0.11480542 -0.792
0.059375197 0.11480542 -0.792
0.061025046 0.11509534 -0.79400003
0.062524959 0.11509534 -0.79400003
0.064024866 0.11509534 -0.79400003
0.065689825 0.11538525 -0.796
0.067193508 0.11538525 -0.796
0.068697199 0.11538525 -0.796
0.070200883 0.11538525 -0.796
0.071704574 0.11538525 -0.796
0.0026655109 0.11978023 -0.83700001
0.0042466498 0.11978023 -0.83700001
0.0058138631 0.11949401 -0.83499998
0.0073912237 0.11949401 -0.83499998
0.0089471033 0.1192078 -0.833
0.010470166 0.11863537 -0.829
0.012036192 0.11863537 -0.829
0.013569403 0.11834916 -0.82700002
0.015131651 0.11834916 -0.82700002
0.016613156 0.11777673 -0.82300001
0.018167848 0.11777673 -0.82300001
0.01967461 0.11749052 -0.82099998
0.021173818 0.1172043 -0.81900001
0.022665469 0.11691809 -0.81699997
0.024149565 0.11663188 -0.815
0.025626104 0.11634567 -0.81300002
0.027161906 0.11634567 -0.81300002
0.028627109 0.11605945 -0.81099999
0.030159133 0.11605945 -0.81099999
0.031613003 0.11577324 -0.80900002
0.033059318 0.11548702 -0.80699998
0.034498077 0.11520081 -0.80500001
0.036018763 0.11520081 -0.80500001
0.037446186 0.1149146 -0.80299997
0.038866054 0.11462838 -0.801
0.040379189 0.11462838 -0.801
0.041840021 0.11448528 -0.80000001
0.043242887 0.11419906 -0.79799998
0.044750351 0.11419906 -0.79799998
0.046141885 0.11391285 -0.796
0.047645573 0.11391285 -0.796
0.04902577 0.11362664 -0.79400003
0.050398409 0.11334042 -0.792
0.051894542 0.11334042 -0.792
0.053390671 0.11334042 -0.792
0.054886803 0.11334042 -0.792
0.056382935 0.11334042 -0.792
0.057879064 0.11334042 -0.792
0.059525136 0.11362664 -0.79400003
0.061025046 0.11362664 -0.79400003
0.062524959 0.11362664 -0.79400003
0.064024866 0.11362664 -0.79400003
0.065689825 0.11391285 -0.796
0.067193508 0.11391285 -0.796
0.068697199 0.11391285 -0.796
0.070200883 0.11391285 -0.796
0.071704574 0.11391285 -0.796
0.073208258 0.11391285 -0.796
0.0026718799 0.1185145 -0.83899999
0.0042466498 0.11823199 -0.83700001
0.0058277887 0.11823199 -0.83700001
0.0073912237 0.11794947 -0.83499998
0.0089471033 0.11766696 -0.833
0.010495425 0.11738444 -0.83099997
0.012036192 0.11710194 -0.829
0.013602219 0.11710194 -0.829
0.015131651 0.11681943 -0.82700002
0.016653527 0.11653691 -0.82499999
0.018167848 0.1162544 -0.82300001
0.01967461 0.11597188 -0.82099998
0.021225525 0.11597188 -0.82099998
0.022720955 0.11568937 -0.81900001
0.024208827 0.11540685 -0.81699997
0.025689144 0.11512434 -0.815
0.027161906 0.11484183 -0.81300002
0.028697709 0.11484183 -0.81300002
0.030159133 0.11455931 -0.81099999
0.031691156 0.11455931 -0.81099999
0.033141248 0.1142768 -0.80900002
0.034583785 0.11399428 -0.80699998
0.036018763 0.11371177 -0.80500001
0.037446186 0.11342926 -0.80299997
0.038963098 0.11342926 -0.80299997
0.040379189 0.11314674 -0.801
0.041840021 0.11300549 -0.80000001
0.043351267 0.11300549 -0.80000001
0.044750351 0.11272297 -0.79799998
0.046257816 0.11272297 -0.79799998
0.047645573 0.11244046 -0.796
0.04914926 0.11244046 -0.796
0.05052568 0.11215795 -0.79400003
0.05202559 0.11215795 -0.79400003
0.053390671 0.11187543 -0.792
0.054886803 0.11187543 -0.792
0.056382935 0.11187543 -0.792
0.058025226 0.11215795 -0.79400003
0.059525136 0.11215795 -0.79400003
0.061025046 0.11215795 -0.79400003
0.062524959 0.11215795 -0.79400003
0.064024866 0.11215795 -0.79400003
0.065689825 0.11244046 -0.796
0.067193508 0.11244046 -0.796
0.068697199 0.11244046 -0.796
0.070200883 0.11244046 -0.796
0.071704574 0.11244046 -0.796
0.073208258 0.11244046 -0.796
0.0026782493 0.11724139 -0.84100002
0.004256797 0.11696257 -0.83899999
0.0058277887 0.11668376 -0.83700001
0.0074089277 0.11668376 -0.83700001
0.0089685842 0.11640494 -0.83499998
0.010520685 0.11612613 -0.833
0.01206523 0.11584731 -0.83099997
0.013602219 0.1155685 -0.829
0.015131651 0.11528969 -0.82700002
0.016693899 0.11528969 -0.82700002
0.018211998 0.11501087 -0.82499999
0.01972254 0.11473206 -0.82300001
0.021225525 0.11445324 -0.82099998
0.022720955 0.11417443 -0.81900001
0.024268091 0.11417443 -0.81900001
0.025752185 0.11389561 -0.81699997
0.027228724 0.1136168 -0.815
0.028697709 0.11333799 -0.81300002
0.030159133 0.11305917 -0.81099999
0.031691156 0.11305917 -0.81099999
0.033141248 0.11278036 -0.80900002
0.034583785 0.11250154 -0.80699998
0.036018763 0.11222273 -0.80500001
0.037539452 0.11222273 -0.80500001
0.038963098 0.11194392 -0.80299997
0.04048001 0.11194392 -0.80299997
0.04189232 0.1116651 -0.801
0.043351267 0.1115257 -0.80000001
0.044862509 0.1115257 -0.80000001
0.046257816 0.11124688 -0.79799998
0.047765281 0.11124688 -0.79799998
0.04914926 0.11096807 -0.796
0.050652947 0.11096807 -0.796
0.05202559 0.11068925 -0.79400003
0.0535255 0.11068925 -0.79400003
0.05502541 0.11068925 -0.79400003
0.056525316 0.11068925 -0.79400003
0.058025226 0.11068925 -0.79400003
0.059525136 0.11068925 -0.79400003
0.061025046 0.11068925 -0.79400003
0.062524959 0.11068925 -0.79400003
0.064024866 0.11068925 -0.79400003
0.065689825 0.11096807 -0.796
0.067193508 0.11096807 -0.796
0.068697199 0.11096807 -0.796
0.070200883 0.11096807 -0.796
0.071704574 0.11096807 -0.796
0.073208258 0.11096807 -0.796
0.0026846183 0.11596087 -0.84299999
0.0042669442 0.11568576 -0.84100002
0.0058417139 0.11541064 -0.83899999
0.0074089277 0.11513553 -0.83700001
0.0089685842 0.11486041 -0.83499998
0.010545945 0.11486041 -0.83499998
0.012094269 0.1145853 -0.833
0.013635035 0.11431018 -0.83099997
0.015168245 0.11403506 -0.829
0.016693899 0.11375996 -0.82700002
0.018256148 0.11375996 -0.82700002
0.019770468 0.11348484 -0.82499999
0.021225525 0.1129346 -0.82099998
0.022776438 0.1129346 -0.82099998
0.024268091 0.11265949 -0.81900001
0.025752185 0.11238437 -0.81699997
0.027228724 0.11210926 -0.815
0.028697709 0.11183415 -0.81300002
0.03023351 0.11183415 -0.81300002
0.031691156 0.11155903 -0.81099999
0.033223178 0.11155903 -0.81099999
0.034669496 0.11128392 -0.80900002
0.036108252 0.1110088 -0.80699998
0.037539452 0.11073369 -0.80500001
0.039060142 0.11073369 -0.80500001
0.04048001 0.11045857 -0.80299997
0.041996919 0.11045857 -0.80299997
0.043405455 0.11018346 -0.801
0.044918586 0.11018346 -0.801
0.046373755 0.1100459 -0.80000001
0.047765281 0.10977078 -0.79799998
0.04927275 0.10977078 -0.79799998
0.050652947 0.10949567 -0.796
0.052156635 0.10949567 -0.796
0.0535255 0.10922056 -0.79400003
0.05502541 0.10922056 -0.79400003
0.056525316 0.10922056 -0.79400003
0.058025226 0.10922056 -0.79400003
0.059525136 0.10922056 -0.79400003
0.061025046 0.10922056 -0.79400003
0.062524959 0.10922056 -0.79400003
0.064024866 0.10922056 -0.79400003
0.065689825 0.10949567 -0.796
0.067193508 0.10949567 -0.796
0.068697199 0.10949567 -0.796
0.070200883 0.10949567 -0.796
0.071704574 0.10949567 -0.796
0.073208258 0.10949567 -0.796
0.0026846183 0.11440153 -0.84299999
0.0042770915 0.11440153 -0.84299999
0.0058556395 0.11413012 -0.84100002
0.0074266307 0.11385871 -0.83899999
0.0089900661 0.1135873 -0.83700001
0.010545945 0.11331587 -0.83499998
0.012094269 0.11304446 -0.833
0.013635035 0.11277305 -0.83099997
0.015168245 0.11250163 -0.829
0.016734272 0.11250163 -0.829
0.018256148 0.11223022 -0.82700002
0.019770468 0.1119588 -0.82499999
0.021277232 0.11168738 -0.82300001
0.022776438 0.11141597 -0.82099998
0.024327353 0.11141597 -0.82099998
0.025815226 0.11114456 -0.81900001
0.027295543 0.11087313 -0.81699997
0.028768305 0.11060172 -0.815
0.03023351 0.11033031 -0.81300002
0.031769309 0.11033031 -0.81300002
0.033223178 0.1100589 -0.81099999
0.034755204 0.1100589 -0.81099999
0.036197741 0.10978748 -0.80900002
0.037632719 0.10951606 -0.80699998
0.039060142 0.10924465 -0.80500001
0.040580831 0.10924465 -0.80500001
0.041996919 0.10897323 -0.80299997
0.043513831 0.10897323 -0.80299997
0.044918586 0.10870182 -0.801
0.04643172 0.10870182 -0.801
0.047884997 0.10856611 -0.80000001
0.04927275 0.10829469 -0.79799998
0.050780214 0.10829469 -0.79799998
0.052156635 0.10802328 -0.796
0.053660322 0.10802328 -0.796
0.05502541 0.10775187 -0.79400003
0.056525316 0.10775187 -0.79400003
0.058025226 0.10775187 -0.79400003
0.059525136 0.10775187 -0.79400003
0.061025046 0.10775187 -0.79400003
0.062524959 0.10775187 -0.79400003
0.064024866 0.10775187 -0.79400003
0.065524772 0.10775187 -0.79400003
0.067193508 0.10802328 -0.796
0.068697199 0.10802328 -0.796
0.070200883 0.10802328 -0.796
0.071704574 0.10802328 -0.796
0.073208258 0.10802328 -0.796
0.0026909877 0.11310992 -0.84500003
0.0042770915 0.11284221 -0.84299999
0.0058695646 0.11284221 -0.84299999
0.0074620377 0.11284221 -0.84299999
0.009011548 0.11230677 -0.83899999
0.010571205 0.11203906 -0.83700001
0.012123306 0.11177134 -0.83499998
0.013667851 0.11150363 -0.833
0.015204839 0.11123591 -0.83099997
0.016734272 0.11096819 -0.829
0.018300299 0.11096819 -0.829
0.019818397 0.11070048 -0.82700002
0.021328937 0.11043277 -0.82499999
0.022831924 0.11016505 -0.82300001
0.024327353 0.10989733 -0.82099998
0.025815226 0.10962962 -0.81900001
0.027362362 0.10962962 -0.81900001
0.028838901 0.1093619 -0.81699997
0.030307883 0.10909419 -0.815
0.031769309 0.10882647 -0.81300002
0.033305112 0.10882647 -0.81300002
0.034755204 0.10855875 -0.81099999
0.036287226 0.10855875 -0.81099999
0.037725985 0.10829104 -0.80900002
0.039157186 0.10802332 -0.80699998
0.040580831 0.10775561 -0.80500001
0.041996919 0.10748789 -0.80299997
0.043513831 0.10748789 -0.80299997
0.044918586 0.10722017 -0.801
0.04643172 0.10722017 -0.801
0.047884997 0.10708632 -0.80000001
0.04927275 0.1068186 -0.79799998
0.050780214 0.1068186 -0.79799998
0.052156635 0.10655089 -0.796
0.053660322 0.10655089 -0.796
0.05502541 0.10628317 -0.79400003
0.056525316 0.10628317 -0.79400003
0.058025226 0.10628317 -0.79400003
0.059525136 0.10628317 -0.79400003
0.060871329 0.10601545 -0.792
0.062367462 0.10601545 -0.792
0.06386359 0.10601545 -0.792
0.065524772 0.10628317 -0.79400003
0.067024685 0.10628317 -0.79400003
0.068524592 0.10628317 -0.79400003
0.070024505 0.10628317 -0.79400003
0.071524411 0.10628317 -0.79400003
0.073208258 0.10655089 -0.796
0.0026909877 0.1115469 -0.84500003
0.0042872392 0.1115469 -0.84500003
0.0058834902 0.1115469 -0.84500003
0.0074620377 0.11128288 -0.84299999
0.0090545109 0.11128288 -0.84299999
0.010596464 0.11075484 -0.83899999
0.012123306 0.11022681 -0.83499998
0.013700667 0.11022681 -0.83499998
0.015241434 0.1099628 -0.833
0.016774643 0.10969877 -0.83099997
0.018300299 0.10943476 -0.829
0.019818397 0.10917075 -0.82700002
0.021380646 0.10917075 -0.82700002
0.022887409 0.10890673 -0.82499999
0.024386616 0.10864271 -0.82300001
0.025878267 0.10837869 -0.82099998
0.027362362 0.10811468 -0.81900001
0.028909499 0.10811468 -0.81900001
0.030382257 0.10785066 -0.81699997
0.031847462 0.10758664 -0.815
0.033305112 0.10732263 -0.81300002
0.034840915 0.10732263 -0.81300002
0.036287226 0.10705861 -0.81099999
0.037819251 0.10705861 -0.81099999
0.03925423 0.1067946 -0.80900002
0.040681653 0.10653058 -0.80699998
0.042101521 0.10626657 -0.80500001
0.043513831 0.10600255 -0.80299997
0.045030743 0.10600255 -0.80299997
0.04643172 0.10573854 -0.801
0.047944851 0.10573854 -0.801
0.049396239 0.10560653 -0.80000001
0.050780214 0.10534251 -0.79799998
0.052156635 0.1050785 -0.796
0.053660322 0.1050785 -0.796
0.05502541 0.10481448 -0.79400003
0.056525316 0.10481448 -0.79400003
0.058025226 0.10481448 -0.79400003
0.059375197 0.10455046 -0.792
0.060871329 0.10455046 -0.792
0.062367462 0.10455046 -0.792
0.06386359 0.10455046 -0.792
0.065359719 0.10455046 -0.792
0.067024685 0.10481448 -0.79400003
0.068524592 0.10481448 -0.79400003
0.070024505 0.10481448 -0.79400003
0.071524411 0.10481448 -0.79400003
0.073208258 0.1050785 -0.796
0.0010999184 0.11050449 -0.84899998
0.0026973567 0.11024418 -0.847
0.0042872392 0.10998387 -0.84500003
0.0058834902 0.10998387 -0.84500003
0.0074797417 0.10998387 -0.84500003
0.0090545109 0.10972355 -0.84299999
0.010621725 0.10946323 -0.84100002
0.012152344 0.1089426 -0.83700001
0.013700667 0.10868227 -0.83499998
0.015278027 0.10868227 -0.83499998
0.016815016 0.10842196 -0.833
0.018344449 0.10816164 -0.83099997
0.019866325 0.10790133 -0.829
0.021380646 0.10764101 -0.82700002
0.022942893 0.10764101 -0.82700002
0.024445878 0.1073807 -0.82499999
0.025878267 0.10686006 -0.82099998
0.02742918 0.10686006 -0.82099998
0.028909499 0.10659974 -0.81900001
0.030456634 0.10659974 -0.81900001
0.031925615 0.10633942 -0.81699997
0.033387043 0.10607911 -0.815
0.034840915 0.10581879 -0.81300002
0.036376715 0.10581879 -0.81300002
0.037819251 0.10555848 -0.81099999
0.039351273 0.10555848 -0.81099999
0.040681653 0.10503784 -0.80699998
0.042101521 0.10477753 -0.80500001
0.043622211 0.10477753 -0.80500001
0.045030743 0.10451721 -0.80299997
0.046547651 0.10451721 -0.80299997
0.047944851 0.10425689 -0.801
0.049396239 0.10412674 -0.80000001
0.050780214 0.10386641 -0.79799998
0.052156635 0.1036061 -0.796
0.053660322 0.1036061 -0.796
0.05502541 0.10334579 -0.79400003
0.056525316 0.10334579 -0.79400003
0.058025226 0.10334579 -0.79400003
0.059375197 0.10308547 -0.792
0.060871329 0.10308547 -0.792
0.062367462 0.10308547 -0.792
0.06386359 0.10308547 -0.792
0.065359719 0.10308547 -0.792
0.067024685 0.10334579 -0.79400003
0.068697199 0.1036061 -0.796
0.070200883 0.1036061 -0.796
0.071704574 0.1036061 -0.796
0.0010999184 0.10893407 -0.84899998
0.0026973567 0.10867745 -0.847
0.0042973864 0.10867745 -0.847
0.0058834902 0.10842083 -0.84500003
0.0074797417 0.10842083 -0.84500003
0.0090759927 0.10842083 -0.84500003
0.010646984 0.10816421 -0.84299999
0.012181382 0.10765098 -0.83899999
0.013733483 0.10739437 -0.83700001
0.015278027 0.10713774 -0.83499998
0.016855389 0.10713774 -0.83499998
0.018388599 0.10688113 -0.833
0.019914253 0.10662451 -0.83099997
0.021432351 0.10636789 -0.829
0.022942893 0.10611128 -0.82700002
0.024505142 0.10611128 -0.82700002
0.026004348 0.10585466 -0.82499999
0.02742918 0.10534142 -0.82099998
0.028980095 0.10534142 -0.82099998
0.030456634 0.10508481 -0.81900001
0.032003772 0.10508481 -0.81900001
0.033468973 0.10482819 -0.81699997
0.034926623 0.10457157 -0.815
0.036376715 0.10431496 -0.81300002
0.037912518 0.10431496 -0.81300002
0.039351273 0.10405833 -0.81099999
0.040782478 0.10380172 -0.80900002
0.04220612 0.1035451 -0.80699998
0.043622211 0.10328849 -0.80500001
0.0451429 0.10328849 -0.80500001
0.046547651 0.10303187 -0.80299997
0.048064563 0.10303187 -0.80299997
0.049457986 0.10277525 -0.801
0.050780214 0.10239032 -0.79799998
0.052287679 0.10239032 -0.79799998
0.053660322 0.10213371 -0.796
0.055164009 0.10213371 -0.796
0.056525316 0.10187709 -0.79400003
0.058025226 0.10187709 -0.79400003
0.059525136 0.10187709 -0.79400003
0.060871329 0.10162047 -0.792
0.062367462 0.10162047 -0.792
0.06386359 0.10162047 -0.792
0.065524772 0.10187709 -0.79400003
0.067193508 0.10213371 -0.796
0.068697199 0.10213371 -0.796
0.070200883 0.10213371 -0.796
0.071884736 0.10239032 -0.79799998
-0.00050507614 0.10761656 -0.85100001
0.0010999184 0.10736363 -0.84899998
0.0027037258 0.10736363 -0.84899998
0.0042973864 0.10711072 -0.847
0.0058974158 0.10711072 -0.847
0.0074797417 0.10685781 -0.84500003
0.0090759927 0.10685781 -0.84500003
0.010646984 0.10660488 -0.84299999
0.01221042 0.10635197 -0.84100002
0.013766299 0.10609905 -0.83899999
0.015314622 0.10584613 -0.83700001
0.016855389 0.10559321 -0.83499998
0.018388599 0.10534029 -0.833
0.019914253 0.10508737 -0.83099997
0.021432351 0.10483446 -0.829
0.022998378 0.10483446 -0.829
0.024505142 0.10458154 -0.82700002
0.026067391 0.10458154 -0.82700002
0.027496001 0.10407571 -0.82300001
0.028980095 0.10382278 -0.82099998
0.030531008 0.10382278 -0.82099998
0.032003772 0.10356987 -0.81900001
0.033468973 0.10331695 -0.81699997
0.034926623 0.10306403 -0.815
0.036466204 0.10306403 -0.815
0.037912518 0.10281112 -0.81300002
0.039448317 0.10281112 -0.81300002
0.040883295 0.1025582 -0.81099999
0.042310722 0.10230528 -0.80900002
0.043730587 0.10205236 -0.80699998
0.0451429 0.10179944 -0.80500001
0.04666359 0.10179944 -0.80500001
0.048064563 0.10154653 -0.80299997
0.049581476 0.10154653 -0.80299997
0.050907485 0.10116715 -0.80000001
0.052287679 0.10091423 -0.79799998
0.053795144 0.10091423 -0.79799998
0.055164009 0.10066132 -0.796
0.056667697 0.10066132 -0.796
0.058025226 0.1004084 -0.79400003
0.059525136 0.1004084 -0.79400003
0.061025046 0.1004084 -0.79400003
0.062524959 0.1004084 -0.79400003
0.064024866 0.1004084 -0.79400003
0.065524772 0.1004084 -0.79400003
0.067193508 0.10066132 -0.796
0.068697199 0.10066132 -0.796
0.070200883 0.10066132 -0.796
-0.00050507614 0.10604243 -0.85100001
0.0010999184 0.10579321 -0.84899998
0.0027037258 0.10579321 -0.84899998
0.0043075331 0.10579321 -0.84899998
0.0058974158 0.10554399 -0.847
0.0074974452 0.10554399 -0.847
0.0090759927 0.10529477 -0.84500003
0.010672244 0.10529477 -0.84500003
0.012239457 0.10504555 -0.84299999
0.013799115 0.10479634 -0.84100002
0.015351215 0.10454711 -0.83899999
0.016895762 0.1042979 -0.83700001
0.018432749 0.10404868 -0.83499998
0.019962182 0.10379946 -0.833
0.021484056 0.10355024 -0.83099997
0.022998378 0.10330103 -0.829
0.024564404 0.10330103 -0.829
0.026067391 0.10305181 -0.82700002
0.027562819 0.10280258 -0.82499999
0.029050693 0.10255337 -0.82300001
0.030531008 0.10230415 -0.82099998
0.032081921 0.10230415 -0.82099998
0.033550907 0.10205493 -0.81900001
0.035012331 0.10180571 -0.81699997
0.036466204 0.10155649 -0.815
0.037912518 0.10130728 -0.81300002
0.039448317 0.10130728 -0.81300002
0.040883295 0.10105806 -0.81099999
0.042415321 0.10105806 -0.81099999
0.043838967 0.10080884 -0.80900002
0.045255054 0.10055962 -0.80699998
0.04666359 0.10031041 -0.80500001
0.048184279 0.10031041 -0.80500001
0.049581476 0.10006118 -0.80299997
0.050971117 0.099811964 -0.801
0.052418727 0.09968736 -0.80000001
0.053795144 0.099438138 -0.79799998
0.055302612 0.099438138 -0.79799998
0.056667697 0.099188924 -0.796
0.058171384 0.099188924 -0.796
0.059525136 0.098939709 -0.79400003
0.061025046 0.098939709 -0.79400003
0.062524959 0.098939709 -0.79400003
0.064024866 0.098939709 -0.79400003
0.065689825 0.099188924 -0.796
0.067193508 0.099188924 -0.796
0.068697199 0.099188924 -0.796
0.070377268 0.099438138 -0.79799998
-0.00050507614 0.1044683 -0.85100001
0.0010999184 0.10422277 -0.84899998
0.0027037258 0.10422277 -0.84899998
0.0043075331 0.10422277 -0.84899998
0.0058974158 0.10397726 -0.847
0.0074974452 0.10397726 -0.847
0.0090759927 0.10373174 -0.84500003
0.010672244 0.10373174 -0.84500003
0.012239457 0.10348622 -0.84299999
0.013799115 0.10324071 -0.84100002
0.015351215 0.10299518 -0.83899999
0.016895762 0.10274967 -0.83700001
0.018432749 0.10250414 -0.83499998
0.02001011 0.10250414 -0.83499998
0.021535764 0.10225863 -0.833
0.023053862 0.1020131 -0.83099997
0.024564404 0.10176759 -0.829
0.026067391 0.10152207 -0.82700002
0.027629638 0.10152207 -0.82700002
0.029121289 0.10127655 -0.82499999
0.030605385 0.10103104 -0.82300001
0.032081921 0.10078551 -0.82099998
0.033550907 0.10054 -0.81900001
0.035012331 0.10029447 -0.81699997
0.036466204 0.10004896 -0.815
0.03800578 0.10004896 -0.815
0.039448317 0.09980344 -0.81300002
0.04098412 0.09980344 -0.81300002
0.042415321 0.099557921 -0.81099999
0.043947343 0.099557921 -0.81099999
0.045367211 0.099312402 -0.80900002
0.046779521 0.099066876 -0.80699998
0.048184279 0.098821364 -0.80500001
0.049581476 0.098575838 -0.80299997
0.051098384 0.098575838 -0.80299997
0.052484252 0.098330326 -0.801
0.053929973 0.098207563 -0.80000001
0.055302612 0.097962044 -0.79799998
0.056810077 0.097962044 -0.79799998
0.058171384 0.097716525 -0.796
0.059675071 0.097716525 -0.796
0.061178759 0.097716525 -0.796
0.06268245 0.097716525 -0.796
0.064186133 0.097716525 -0.796
0.065689825 0.097716525 -0.796
0.067193508 0.097716525 -0.796
0.068869799 0.097962044 -0.79799998
0.070553653 0.098207563 -0.80000001
0.0027037258 0.10265235 -0.84899998
0.0043075331 0.10265235 -0.84899998
0.0058974158 0.10241053 -0.847
0.0074974452 0.10241053 -0.847
0.0090759927 0.10216872 -0.84500003
0.010672244 0.10216872 -0.84500003
0.012239457 0.10192689 -0.84299999
0.013799115 0.10168508 -0.84100002
0.015351215 0.10144325 -0.83899999
0.016895762 0.10120144 -0.83700001
0.018432749 0.10095961 -0.83499998
0.02001011 0.10095961 -0.83499998
0.021535764 0.1007178 -0.833
0.023053862 0.10047597 -0.83099997
0.024564404 0.10023415 -0.829
0.02613043 0.10023415 -0.829
0.027629638 0.099992335 -0.82700002
0.029121289 0.099750511 -0.82499999
0.030605385 0.099508695 -0.82300001
0.032081921 0.099266872 -0.82099998
0.033550907 0.099025056 -0.81900001
0.035098042 0.099025056 -0.81900001
0.036555689 0.098783232 -0.81699997
0.03800578 0.098541416 -0.815
0.039545361 0.098541416 -0.815
0.04098412 0.0982996 -0.81300002
0.042415321 0.098057777 -0.81099999
0.043947343 0.098057777 -0.81099999
0.045367211 0.097815961 -0.80900002
0.046779521 0.097574137 -0.80699998
0.048184279 0.097332321 -0.80500001
0.049704965 0.097332321 -0.80500001
0.051098384 0.097090498 -0.80299997
0.052484252 0.096848682 -0.801
0.053929973 0.096727774 -0.80000001
0.055302612 0.09648595 -0.79799998
0.056810077 0.09648595 -0.79799998
0.058317542 0.09648595 -0.79799998
0.059675071 0.096244134 -0.796
0.061178759 0.096244134 -0.796
0.06268245 0.096244134 -0.796
0.064186133 0.096244134 -0.796
0.065689825 0.096244134 -0.796
0.067362338 0.09648595 -0.79799998
0.068869799 0.09648595 -0.79799998
0.070377268 0.09648595 -0.79799998
0.072154976 0.096848682 -0.801
0.073668115 0.096848682 -0.801
0.075368963 0.097090498 -0.80299997
0.0074974452 0.1008438 -0.847
0.0090759927 0.10060568 -0.84500003
0.010672244 0.10060568 -0.84500003
0.012239457 0.10036756 -0.84299999
0.013799115 0.10012944 -0.84100002
0.015351215 0.09989132 -0.83899999
0.016895762 0.099653199 -0.83700001
0.0184769 0.099653199 -0.83700001
0.02001011 0.099415079 -0.83499998
0.021587471 0.099415079 -0.83499998
0.023109347 0.099176958 -0.833
0.024623666 0.098938838 -0.83099997
0.02613043 0.098700717 -0.829
0.027696457 0.098700717 -0.829
0.029191887 0.098462604 -0.82700002
0.030679759 0.098224476 -0.82499999
0.032160077 0.097986363 -0.82300001
0.033632837 0.097748235 -0.82099998
0.035098042 0.097510122 -0.81900001
0.036645178 0.097510122 -0.81900001
0.038099047 0.097271994 -0.81699997
0.039545361 0.097033881 -0.815
0.04098412 0.09679576 -0.81300002
0.042519923 0.09679576 -0.81300002
0.043947343 0.09655764 -0.81099999
0.045479368 0.09655764 -0.81099999
0.046895459 0.096319519 -0.80900002
0.048303988 0.096081398 -0.80699998
0.049704965 0.095843285 -0.80500001
0.051098384 0.095605157 -0.80299997
0.052615296 0.095605157 -0.80299997
0.053997383 0.095367044 -0.801
0.055441216 0.095247984 -0.80000001
0.056810077 0.095009856 -0.79799998
0.058317542 0.095009856 -0.79799998
0.059825007 0.095009856 -0.79799998
0.061332475 0.095009856 -0.79799998
0.06283994 0.095009856 -0.79799998
0.064347401 0.095009856 -0.79799998
0.06585487 0.095009856 -0.79799998
0.067362338 0.095009856 -0.79799998
0.068869799 0.095009856 -0.79799998
0.070553653 0.095247984 -0.80000001
0.072064899 0.095247984 -0.80000001
0.073668115 0.095367044 -0.801
0.075181246 0.095367044 -0.801
0.076885872 0.095605157 -0.80299997
0.010672244 0.099042654 -0.84500003
0.012239457 0.098808229 -0.84299999
0.013831931 0.098808229 -0.84299999
0.015351215 0.098339386 -0.83899999
0.016895762 0.098104969 -0.83700001
0.0184769 0.098104969 -0.83700001
0.02001011 0.097870544 -0.83499998
0.021587471 0.097870544 -0.83499998
0.023109347 0.097636126 -0.833
0.024623666 0.097401701 -0.83099997
0.02613043 0.097167283 -0.829
0.027696457 0.097167283 -0.829
0.029191887 0.096932866 -0.82700002
0.030754136 0.096932866 -0.82700002
0.03223823 0.096698441 -0.82499999
0.033632837 0.096229598 -0.82099998
0.03518375 0.096229598 -0.82099998
0.036645178 0.09599518 -0.81900001
0.038099047 0.095760763 -0.81699997
0.039642405 0.095760763 -0.81699997
0.041084941 0.095526345 -0.815
0.042519923 0.095291927 -0.81300002
0.044055723 0.095291927 -0.81300002
0.045479368 0.095057502 -0.81099999
0.04701139 0.095057502 -0.81099999
0.048423704 0.094823085 -0.80900002
0.049828455 0.09458866 -0.80699998
0.051225655 0.094354242 -0.80500001
0.052615296 0.094119817 -0.80299997
0.053997383 0.093885399 -0.801
0.055441216 0.093768187 -0.80000001
0.056952462 0.093768187 -0.80000001
0.058317542 0.093533769 -0.79799998
0.059825007 0.093533769 -0.79799998
0.061332475 0.093533769 -0.79799998
0.06283994 0.093533769 -0.79799998
0.064347401 0.093533769 -0.79799998
0.06585487 0.093533769 -0.79799998
0.067362338 0.093533769 -0.79799998
0.068869799 0.093533769 -0.79799998
0.070553653 0.093768187 -0.80000001
0.072064899 0.093768187 -0.80000001
0.073668115 0.093885399 -0.801
0.075181246 0.093885399 -0.801
0.076694377 0.093885399 -0.801
0.078207508 0.093885399 -0.801
0.012239457 0.097248897 -0.84299999
0.013831931 0.097248897 -0.84299999
0.015351215 0.096787453 -0.83899999
0.016936133 0.096787453 -0.83899999
0.0184769 0.096556738 -0.83700001
0.02001011 0.096326008 -0.83499998
0.021587471 0.096326008 -0.83499998
0.023164831 0.096326008 -0.83499998
0.02468293 0.096095294 -0.833
0.02619347 0.095864572 -0.83099997
0.027696457 0.09563385 -0.829
0.029191887 0.095403135 -0.82700002
0.030754136 0.095403135 -0.82700002
0.03223823 0.095172405 -0.82499999
0.033714768 0.094941691 -0.82300001
0.03518375 0.094710968 -0.82099998
0.036645178 0.094480246 -0.81900001
0.038192313 0.094480246 -0.81900001
0.039642405 0.094249524 -0.81699997
0.041084941 0.094018802 -0.815
0.042519923 0.093788087 -0.81300002
0.044055723 0.093788087 -0.81300002
0.045591526 0.093788087 -0.81300002
0.04701139 0.093557358 -0.81099999
0.048543416 0.093557358 -0.81099999
0.049828455 0.093095921 -0.80699998
0.051225655 0.092865199 -0.80500001
0.052746344 0.092865199 -0.80500001
0.054132208 0.092634477 -0.80299997
0.055510517 0.092403755 -0.801
0.056952462 0.092288397 -0.80000001
0.058463704 0.092288397 -0.80000001
0.059974946 0.092288397 -0.80000001
0.061332475 0.092057675 -0.79799998
0.06283994 0.092057675 -0.79799998
0.064347401 0.092057675 -0.79799998
0.06585487 0.092057675 -0.79799998
0.067362338 0.092057675 -0.79799998
0.069042414 0.092288397 -0.80000001
0.070553653 0.092288397 -0.80000001
0.072064899 0.092288397 -0.80000001
0.073576145 0.092288397 -0.80000001
0.075181246 0.092403755 -0.801
0.076694377 0.092403755 -0.801
0.078207508 0.092403755 -0.801
0.015387811 0.095462546 -0.84100002
0.016936133 0.095235519 -0.83899999
0.0184769 0.095008507 -0.83700001
0.02005804 0.095008507 -0.83700001
0.021587471 0.094781481 -0.83499998
0.023164831 0.094781481 -0.83499998
0.02468293 0.094554462 -0.833
0.02619347 0.094327435 -0.83099997
0.027696457 0.094100416 -0.829
0.029262483 0.094100416 -0.829
0.030754136 0.093873397 -0.82700002
0.032316383 0.093873397 -0.82700002
0.033796698 0.09364637 -0.82499999
0.035269462 0.093419351 -0.82300001
0.036734663 0.093192331 -0.82099998
0.038192313 0.092965312 -0.81900001
0.039739449 0.092965312 -0.81900001
0.041185763 0.092738286 -0.81699997
0.042624522 0.092511266 -0.815
0.044055723 0.092284247 -0.81300002
0.045591526 0.092284247 -0.81300002
0.047127329 0.092284247 -0.81300002
0.048543416 0.092057221 -0.81099999
0.049951948 0.091830201 -0.80900002
0.051352922 0.091603175 -0.80699998
0.052746344 0.091376156 -0.80500001
0.054267034 0.091376156 -0.80500001
0.055649117 0.091149136 -0.80299997
0.057023648 0.090922117 -0.801
0.058536783 0.090922117 -0.801
0.059974946 0.090808608 -0.80000001
0.061486192 0.090808608 -0.80000001
0.062997438 0.090808608 -0.80000001
0.064347401 0.090581581 -0.79799998
0.06585487 0.090581581 -0.79799998
0.067362338 0.090581581 -0.79799998
0.068869799 0.090581581 -0.79799998
0.070553653 0.090808608 -0.80000001
0.072064899 0.090808608 -0.80000001
0.073576145 0.090808608 -0.80000001
0.075087383 0.090808608 -0.80000001
0.076598629 0.090808608 -0.80000001
0.078109875 0.090808608 -0.80000001
0.079720646 0.090922117 -0.801
0.016936133 0.093683593 -0.83899999
0.0184769 0.093460269 -0.83700001
0.02005804 0.093460269 -0.83700001
0.021587471 0.093236946 -0.83499998
0.023164831 0.093236946 -0.83499998
0.02468293 0.093013629 -0.833
0.02619347 0.092790298 -0.83099997
0.027763275 0.092790298 -0.83099997
0.029262483 0.092566982 -0.829
0.030828509 0.092566982 -0.829
0.032316383 0.092343666 -0.82700002
0.033878632 0.092343666 -0.82700002
0.035355169 0.092120335 -0.82499999
0.036734663 0.091673695 -0.82099998
0.03828558 0.091673695 -0.82099998
0.039739449 0.091450371 -0.81900001
0.041286584 0.091450371 -0.81900001
0.042729121 0.091227047 -0.81699997
0.044164099 0.091003731 -0.815
0.045591526 0.090780407 -0.81300002
0.047127329 0.090780407 -0.81300002
0.048543416 0.090557083 -0.81099999
0.050075438 0.090557083 -0.81099999
0.051480193 0.09033376 -0.80900002
0.052877389 0.090110436 -0.80699998
0.054267034 0.08988712 -0.80500001
0.055649117 0.089663796 -0.80299997
0.057166029 0.089663796 -0.80299997
0.058682941 0.089663796 -0.80299997
0.060049914 0.089440472 -0.801
0.061486192 0.089328811 -0.80000001
0.062997438 0.089328811 -0.80000001
0.064508677 0.089328811 -0.80000001
0.06585487 0.089105487 -0.79799998
0.067362338 0.089105487 -0.79799998
0.068869799 0.089105487 -0.79799998
0.070553653 0.089328811 -0.80000001
0.072064899 0.089328811 -0.80000001
0.073576145 0.089328811 -0.80000001
0.075087383 0.089328811 -0.80000001
0.076598629 0.089328811 -0.80000001
0.078109875 0.089328811 -0.80000001
0.079621121 0.089328811 -0.80000001
0.02005804 0.091912039 -0.83700001
0.021639178 0.091912039 -0.83700001
0.023164831 0.09169241 -0.83499998
0.024742192 0.09169241 -0.83499998
0.026256513 0.09147279 -0.833
0.027763275 0.091253169 -0.83099997
0.029262483 0.091033548 -0.829
0.030828509 0.091033548 -0.829
0.032394536 0.091033548 -0.829
0.033878632 0.090813927 -0.82700002
0.035355169 0.090594299 -0.82499999
0.036824152 0.090374678 -0.82300001
0.03828558 0.090155058 -0.82099998
0.039836492 0.090155058 -0.82099998
0.041286584 0.089935437 -0.81900001
0.042729121 0.089715809 -0.81699997
0.044272479 0.089715809 -0.81699997
0.045703679 0.089496188 -0.815
0.047127329 0.089276567 -0.81300002
0.048663128 0.089276567 -0.81300002
0.050075438 0.089056946 -0.81099999
0.05160746 0.089056946 -0.81099999
0.053008441 0.088837326 -0.80900002
0.054401856 0.088617697 -0.80699998
0.055787724 0.088398077 -0.80500001
0.057166029 0.088178448 -0.80299997
0.058682941 0.088178448 -0.80299997
0.060199849 0.088178448 -0.80299997
0.061563049 0.087958835 -0.801
0.062997438 0.087849021 -0.80000001
0.064508677 0.087849021 -0.80000001
0.06585487 0.087629393 -0.79799998
0.067362338 0.087629393 -0.79799998
0.068869799 0.087629393 -0.79799998
0.070377268 0.087629393 -0.79799998
0.072064899 0.087849021 -0.80000001
0.073576145 0.087849021 -0.80000001
0.075087383 0.087849021 -0.80000001
0.076598629 0.087849021 -0.80000001
0.078109875 0.087849021 -0.80000001
0.079621121 0.087849021 -0.80000001
0.08113236 0.087849021 -0.80000001
0.027830096 0.089931957 -0.833
0.029333079 0.089716032 -0.83099997
0.030828509 0.089500114 -0.829
0.032394536 0.089500114 -0.829
0.033960562 0.089500114 -0.829
0.035440881 0.089284189 -0.82700002
0.036913641 0.089068264 -0.82499999
0.038378846 0.088852346 -0.82300001
0.039836492 0.088636421 -0.82099998
0.041387405 0.088636421 -0.82099998
0.042833723 0.088420495 -0.81900001
0.044272479 0.08820457 -0.81699997
0.045703679 0.087988652 -0.815
0.04724326 0.087988652 -0.815
0.048663128 0.087772727 -0.81300002
0.050198931 0.087772727 -0.81300002
0.05160746 0.087556802 -0.81099999
0.053139485 0.087556802 -0.81099999
0.054401856 0.087124959 -0.80699998
0.055787724 0.086909033 -0.80500001
0.057308413 0.086909033 -0.80500001
0.058682941 0.086693108 -0.80299997
0.060199849 0.086693108 -0.80299997
0.061563049 0.08647719 -0.801
0.062997438 0.086369231 -0.80000001
0.064508677 0.086369231 -0.80000001
0.066019922 0.086369231 -0.80000001
0.067362338 0.086153306 -0.79799998
0.068869799 0.086153306 -0.79799998
0.070377268 0.086153306 -0.79799998
0.071884736 0.086153306 -0.79799998
0.073392197 0.086153306 -0.79799998
0.074899666 0.086153306 -0.79799998
0.076407127 0.086153306 -0.79799998
0.078109875 0.086369231 -0.80000001
0.079621121 0.086369231 -0.80000001
0.08113236 0.086369231 -0.80000001
0.029333079 0.088178895 -0.83099997
0.030902883 0.088178895 -0.83099997
0.032394536 0.087966681 -0.829
0.033960562 0.087966681 -0.829
0.035440881 0.087754458 -0.82700002
0.03700313 0.087754458 -0.82700002
0.038472109 0.087542228 -0.82499999
0.039933536 0.087330006 -0.82300001
0.041387405 0.087117784 -0.82099998
0.042833723 0.086905561 -0.81900001
0.044380859 0.086905561 -0.81900001
0.045815837 0.086693332 -0.81699997
0.04724326 0.086481109 -0.815
0.048663128 0.086268894 -0.81300002
0.050198931 0.086268894 -0.81300002
0.051734731 0.086268894 -0.81300002
0.053139485 0.086056665 -0.81099999
0.054536685 0.085844442 -0.80900002
0.055926323 0.08563222 -0.80699998
0.057308413 0.085419998 -0.80500001
0.058829103 0.085419998 -0.80500001
0.060199849 0.085207768 -0.80299997
0.061563049 0.084995545 -0.801
0.063076183 0.084995545 -0.801
0.064508677 0.084889434 -0.80000001
0.066019922 0.084889434 -0.80000001
0.067362338 0.084677212 -0.79799998
0.068869799 0.084677212 -0.79799998
0.070377268 0.084677212 -0.79799998
0.071884736 0.084677212 -0.79799998
0.073392197 0.084677212 -0.79799998
0.074899666 0.084677212 -0.79799998
0.076407127 0.084677212 -0.79799998
0.078109875 0.084889434 -0.80000001
0.079621121 0.084889434 -0.80000001
0.08113236 0.084889434 -0.80000001
0.033960562 0.086433247 -0.829
0.035526589 0.086433247 -0.829
0.03700313 0.08622472 -0.82700002
0.038565379 0.08622472 -0.82700002
0.04003058 0.086016193 -0.82499999
0.04148823 0.085807674 -0.82300001
0.042938322 0.085599147 -0.82099998
0.044380859 0.08539062 -0.81900001
0.045927994 0.08539062 -0.81900001
0.047359195 0.085182093 -0.81699997
0.04878284 0.084973574 -0.815
0.050198931 0.084765054 -0.81300002
0.051734731 0.084765054 -0.81300002
0.053139485 0.084556527 -0.81099999
0.054671507 0.084556527 -0.81099999
0.05606493 0.084348001 -0.80900002
0.057450794 0.084139474 -0.80699998
0.058829103 0.083930954 -0.80500001
0.060199849 0.083722427 -0.80299997
0.061716761 0.083722427 -0.80299997
0.063076183 0.083513908 -0.801
0.064508677 0.083409645 -0.80000001
0.066019922 0.083409645 -0.80000001
0.067531168 0.083409645 -0.80000001
0.068869799 0.083201118 -0.79799998
0.070377268 0.083201118 -0.79799998
0.071884736 0.083201118 -0.79799998
0.073392197 0.083201118 -0.79799998
0.074899666 0.083201118 -0.79799998
0.076598629 0.083409645 -0.80000001
0.078109875 0.083409645 -0.80000001
0.079621121 0.083409645 -0.80000001
0.08113236 0.083409645 -0.80000001
0.038565379 0.084694989 -0.82700002
0.040127628 0.084694989 -0.82700002
0.041589051 0.084490158 -0.82499999
0.042938322 0.08408051 -0.82099998
0.044380859 0.083875686 -0.81900001
0.045927994 0.083875686 -0.81900001
0.047475129 0.083875686 -0.81900001
0.048902549 0.083670862 -0.81699997
0.050322421 0.083466038 -0.815
0.051734731 0.083261214 -0.81300002
0.053270534 0.083261214 -0.81300002
0.054671507 0.083056383 -0.81099999
0.056203533 0.083056383 -0.81099999
0.057593174 0.082851566 -0.80900002
0.058975261 0.082646735 -0.80699998
0.060349792 0.082441911 -0.80500001
0.061716761 0.082237087 -0.80299997
0.063076183 0.082032263 -0.801
0.064589314 0.082032263 -0.801
0.066019922 0.081929855 -0.80000001
0.067531168 0.081929855 -0.80000001
0.069042414 0.081929855 -0.80000001
0.070553653 0.081929855 -0.80000001
0.072064899 0.081929855 -0.80000001
0.073576145 0.081929855 -0.80000001
0.075087383 0.081929855 -0.80000001
0.076598629 0.081929855 -0.80000001
0.078109875 0.081929855 -0.80000001
0.079621121 0.081929855 -0.80000001
0.041589051 0.082964122 -0.82499999
0.042938322 0.082561873 -0.82099998
0.044489235 0.082561873 -0.82099998
0.045927994 0.082360752 -0.81900001
0.047475129 0.082360752 -0.81900001
0.049022265 0.082360752 -0.81900001
0.050445907 0.082159624 -0.81699997
0.051861998 0.081958495 -0.815
0.053270534 0.081757374 -0.81300002
0.054806337 0.081757374 -0.81300002
0.056342136 0.081757374 -0.81300002
0.057735555 0.081556246 -0.81099999
0.059121422 0.081355125 -0.80900002
0.060349792 0.080952875 -0.80500001
0.061716761 0.080751747 -0.80299997
0.063233674 0.080751747 -0.80299997
0.064589314 0.080550626 -0.801
0.066102445 0.080550626 -0.801
0.067531168 0.080450058 -0.80000001
0.069042414 0.080450058 -0.80000001
0.070553653 0.080450058 -0.80000001
0.072064899 0.080450058 -0.80000001
0.073576145 0.080450058 -0.80000001
0.075087383 0.080450058 -0.80000001
0.076598629 0.080450058 -0.80000001
0.078207508 0.080550626 -0.801
0.079720646 0.080550626 -0.801
0.043042921 0.081240661 -0.82300001
0.044489235 0.081043236 -0.82099998
0.046040148 0.081043236 -0.82099998
0.047475129 0.08084581 -0.81900001
0.049022265 0.08084581 -0.81900001
0.050445907 0.080648385 -0.81699997
0.051989265 0.080648385 -0.81699997
