# .PCD v0.7 - Point Cloud Data file format
VERSION 0.7
FIELDS x y z
SIZE 4 4 4
TYPE F F F
COUNT 1 1 1
WIDTH 646
HEIGHT 1
VIEWPOINT 0 0 0 1 0 0 0
POINTS 646
DATA ascii
0.032608695 0.13305396 -0.796
0.034112383 0.13305396 -0.796
0.03561607 0.13305396 -0.796
0.037119757 0.13305396 -0.796
0.038623445 0.13305396 -0.796
0.031183159 0.13191217 -0.79799998
0.032608695 0.13158157 -0.796
0.033940963 0.13092035 -0.792
0.035437096 0.13092035 -0.792
0.036933225 0.13092035 -0.792
0.038623445 0.13158157 -0.796
0.032444831 0.12945536 -0.792
0.033769544 0.12880154 -0.78799999
0.035258118 0.12880154 -0.78799999
0.036839962 0.12912846 -0.79000002
0.038429357 0.12945536 -0.792
0.03228097 0.12734395 -0.78799999
0.033640981 0.12685914 -0.78500003
0.035123888 0.12685914 -0.78500003
0.036606796 0.12685914 -0.78500003
0.038332313 0.12766716 -0.79000002
0.032158073 0.1254071 -0.78500003
0.033555269 0.12508759 -0.78299999
0.035034399 0.12508759 -0.78299999
0.036420267 0.12476808 -0.78100002
0.037895616 0.12476808 -0.78100002
0.032076139 0.12363924 -0.78299999
0.033469561 0.12332343 -0.78100002
0.034944914 0.12332343 -0.78100002
0.036420267 0.12332343 -0.78100002
0.037798572 0.12300762 -0.77899998
0.039270144 0.12300762 -0.77899998
0.030597011 0.12219089 -0.78299999
0.031994209 0.12187879 -0.78100002
0.033469561 0.12187879 -0.78100002
0.034944914 0.12187879 -0.78100002
0.036326997 0.12156667 -0.77899998
0.037798572 0.12156667 -0.77899998
0.039270144 0.12156667 -0.77899998
0.040741719 0.12156667 -0.77899998
0.042213295 0.12156667 -0.77899998
0.026092803 0.12043414 -0.78100002
0.027568154 0.12043414 -0.78100002
0.029043507 0.12043414 -0.78100002
0.030518858 0.12043414 -0.78100002
0.031994209 0.12043414 -0.78100002
0.03338385 0.12012573 -0.77899998
0.034855425 0.12012573 -0.77899998
0.036280368 0.11997152 -0.778
0.03775005 0.11997152 -0.778
0.039219737 0.11997152 -0.778
0.04068942 0.11997152 -0.778
0.042159103 0.11997152 -0.778
0.043684866 0.12012573 -0.77899998
0.02461745 0.11898949 -0.78100002
0.026092803 0.11898949 -0.78100002
0.027497556 0.11868478 -0.77899998
0.02896913 0.11868478 -0.77899998
0.030440703 0.11868478 -0.77899998
0.031912278 0.11868478 -0.77899998
0.033340998 0.11853242 -0.778
0.034810681 0.11853242 -0.778
0.036187101 0.11822771 -0.77600002
0.037653007 0.11822771 -0.77600002
0.039118916 0.11822771 -0.77600002
0.040584821 0.11822771 -0.77600002
0.042050727 0.11822771 -0.77600002
0.043516636 0.11822771 -0.77600002
0.023142099 0.11754484 -0.78100002
0.024554409 0.11724383 -0.77899998
0.026025983 0.11724383 -0.77899998
0.027462259 0.11709332 -0.778
0.028931944 0.11709332 -0.778
0.030401627 0.11709332 -0.778
0.031871311 0.11709332 -0.778
0.033340998 0.11709332 -0.778
0.034721196 0.11679231 -0.77600002
0.036187101 0.11679231 -0.77600002
0.037653007 0.11679231 -0.77600002
0.039118916 0.11679231 -0.77600002
0.040584821 0.11679231 -0.77600002
0.042050727 0.11679231 -0.77600002
0.043516636 0.11679231 -0.77600002
0.044982541 0.11679231 -0.77600002
0.023082836 0.11580288 -0.77899998
0.024522889 0.11565422 -0.778
0.025992574 0.11565422 -0.778
0.027462259 0.11565422 -0.778
0.028931944 0.11565422 -0.778
0.030401627 0.11565422 -0.778
0.031789381 0.11535692 -0.77600002
0.033255287 0.11535692 -0.77600002
0.034721196 0.11535692 -0.77600002
0.036187101 0.11535692 -0.77600002
0.037653007 0.11535692 -0.77600002
0.039118916 0.11535692 -0.77600002
0.040584821 0.11535692 -0.77600002
0.042050727 0.11535692 -0.77600002
0.043516636 0.11535692 -0.77600002
0.044982541 0.11535692 -0.77600002
0.023053205 0.11421513 -0.778
0.024522889 0.11421513 -0.778
0.025992574 0.11421513 -0.778
0.027462259 0.11421513 -0.778
0.028931944 0.11421513 -0.778
0.030323476 0.11392152 -0.77600002
0.031789381 0.11392152 -0.77600002
0.033255287 0.11392152 -0.77600002
0.034721196 0.11392152 -0.77600002
0.036187101 0.11392152 -0.77600002
0.037653007 0.11392152 -0.77600002
0.039118916 0.11392152 -0.77600002
0.040584821 0.11392152 -0.77600002
0.042050727 0.11392152 -0.77600002
0.043516636 0.11392152 -0.77600002
0.044866603 0.1136279 -0.77399999
0.023053205 0.11277603 -0.778
0.024459848 0.11248612 -0.77600002
0.025925756 0.11248612 -0.77600002
0.027391663 0.11248612 -0.77600002
0.028857568 0.11248612 -0.77600002
0.030323476 0.11248612 -0.77600002
0.031789381 0.11248612 -0.77600002
0.033255287 0.11248612 -0.77600002
0.034721196 0.11248612 -0.77600002
0.036187101 0.11248612 -0.77600002
0.037653007 0.11248612 -0.77600002
0.039118916 0.11248612 -0.77600002
0.040584821 0.11248612 -0.77600002
0.042050727 0.11248612 -0.77600002
0.043516636 0.11248612 -0.77600002
0.044982541 0.11248612 -0.77600002
0.023053205 0.11133693 -0.778
0.024459848 0.11105072 -0.77600002
0.025925756 0.11105072 -0.77600002
0.027391663 0.11105072 -0.77600002
0.028857568 0.11105072 -0.77600002
0.030323476 0.11105072 -0.77600002
0.031789381 0.11105072 -0.77600002
0.033255287 0.11105072 -0.77600002
0.034721196 0.11105072 -0.77600002
0.036187101 0.11105072 -0.77600002
0.037653007 0.11105072 -0.77600002
0.039118916 0.11105072 -0.77600002
0.040584821 0.11105072 -0.77600002
0.042050727 0.11105072 -0.77600002
0.043516636 0.11105072 -0.77600002
0.044982541 0.11105072 -0.77600002
0.022993943 0.10961533 -0.77600002
0.024459848 0.10961533 -0.77600002
0.025925756 0.10961533 -0.77600002
0.027391663 0.10961533 -0.77600002
0.028931944 0.10989784 -0.778
0.030401627 0.10989784 -0.778
0.031789381 0.10961533 -0.77600002
0.033255287 0.10961533 -0.77600002
0.034721196 0.10961533 -0.77600002
0.036187101 0.10961533 -0.77600002
0.037653007 0.10961533 -0.77600002
0.039118916 0.10961533 -0.77600002
0.040584821 0.10961533 -0.77600002
0.042050727 0.10961533 -0.77600002
0.043516636 0.10961533 -0.77600002
0.044982541 0.10961533 -0.77600002
0.022993943 0.10817993 -0.77600002
0.024459848 0.10817993 -0.77600002
0.025925756 0.10817993 -0.77600002
0.027462259 0.10845874 -0.778
0.028931944 0.10845874 -0.778
0.030401627 0.10845874 -0.778
0.031871311 0.10845874 -0.778
0.033340998 0.10845874 -0.778
0.034810681 0.10845874 -0.778
0.036187101 0.10817993 -0.77600002
0.037653007 0.10817993 -0.77600002
0.039118916 0.10817993 -0.77600002
0.040584821 0.10817993 -0.77600002
0.042050727 0.10817993 -0.77600002
0.043516636 0.10817993 -0.77600002
0.045098472 0.10845874 -0.778
0.022993943 0.10674453 -0.77600002
0.024459848 0.10674453 -0.77600002
0.025925756 0.10674453 -0.77600002
0.027462259 0.10701964 -0.778
0.028931944 0.10701964 -0.778
0.030401627 0.10701964 -0.778
0.031871311 0.10701964 -0.778
0.033340998 0.10701964 -0.778
0.034810681 0.10701964 -0.778
0.036280368 0.10701964 -0.778
0.03775005 0.10701964 -0.778
0.039219737 0.10701964 -0.778
0.04068942 0.10701964 -0.778
0.042159103 0.10701964 -0.778
0.043628789 0.10701964 -0.778
0.045098472 0.10701964 -0.778
0.023053205 0.10558054 -0.778
0.024459848 0.10530913 -0.77600002
0.025992574 0.10558054 -0.778
0.027462259 0.10558054 -0.778
0.028931944 0.10558054 -0.778
0.030401627 0.10558054 -0.778
0.031871311 0.10558054 -0.778
0.033340998 0.10558054 -0.778
0.034810681 0.10558054 -0.778
0.036280368 0.10558054 -0.778
0.03775005 0.10558054 -0.778
0.039219737 0.10558054 -0.778
0.04068942 0.10558054 -0.778
0.042159103 0.10558054 -0.778
0.043628789 0.10558054 -0.778
0.023053205 0.10414144 -0.778
0.024522889 0.10414144 -0.778
0.025992574 0.10414144 -0.778
0.027462259 0.10414144 -0.778
0.028931944 0.10414144 -0.778
0.030401627 0.10414144 -0.778
0.031871311 0.10414144 -0.778
0.03338385 0.1042753 -0.77899998
0.034855425 0.1042753 -0.77899998
0.036326997 0.1042753 -0.77899998
0.037798572 0.1042753 -0.77899998
0.039270144 0.1042753 -0.77899998
0.040741719 0.1042753 -0.77899998
0.042159103 0.10414144 -0.778
0.043628789 0.10414144 -0.778
0.023082836 0.10283435 -0.77899998
0.024522889 0.10270235 -0.778
0.025992574 0.10270235 -0.778
0.027462259 0.10270235 -0.778
0.028931944 0.10270235 -0.778
0.030440703 0.10283435 -0.77899998
0.031912278 0.10283435 -0.77899998
0.03338385 0.10283435 -0.77899998
0.034855425 0.10283435 -0.77899998
0.036326997 0.10283435 -0.77899998
0.037798572 0.10283435 -0.77899998
0.039270144 0.10283435 -0.77899998
0.040741719 0.10283435 -0.77899998
0.042159103 0.10270235 -0.778
0.043628789 0.10270235 -0.778
0.023082836 0.1013934 -0.77899998
0.024554409 0.1013934 -0.77899998
0.026025983 0.1013934 -0.77899998
0.027497556 0.1013934 -0.77899998
0.02896913 0.1013934 -0.77899998
0.030440703 0.1013934 -0.77899998
0.031912278 0.1013934 -0.77899998
0.03338385 0.1013934 -0.77899998
0.034855425 0.1013934 -0.77899998
0.036326997 0.1013934 -0.77899998
0.037798572 0.1013934 -0.77899998
0.039270144 0.1013934 -0.77899998
0.040741719 0.1013934 -0.77899998
0.042159103 0.10126325 -0.778
0.043628789 0.10126325 -0.778
0.023082836 0.099952459 -0.77899998
0.024554409 0.099952459 -0.77899998
0.026025983 0.099952459 -0.77899998
0.027497556 0.099952459 -0.77899998
0.02896913 0.099952459 -0.77899998
0.030440703 0.099952459 -0.77899998
0.031912278 0.099952459 -0.77899998
0.03338385 0.099952459 -0.77899998
0.034855425 0.099952459 -0.77899998
0.036326997 0.099952459 -0.77899998
0.037798572 0.099952459 -0.77899998
0.039270144 0.099952459 -0.77899998
0.040741719 0.099952459 -0.77899998
0.042159103 0.099824153 -0.778
0.043628789 0.099824153 -0.778
0.023082836 0.09851151 -0.77899998
0.024554409 0.09851151 -0.77899998
0.026025983 0.09851151 -0.77899998
0.027497556 0.09851151 -0.77899998
0.02896913 0.09851151 -0.77899998
0.030440703 0.09851151 -0.77899998
0.031912278 0.09851151 -0.77899998
0.03338385 0.09851151 -0.77899998
0.034855425 0.09851151 -0.77899998
0.036326997 0.09851151 -0.77899998
0.037798572 0.09851151 -0.77899998
0.039270144 0.09851151 -0.77899998
0.040741719 0.09851151 -0.77899998
0.042159103 0.098385051 -0.778
0.043628789 0.098385051 -0.778
0.024554409 0.09707056 -0.77899998
0.026025983 0.09707056 -0.77899998
0.027497556 0.09707056 -0.77899998
0.02896913 0.09707056 -0.77899998
0.030440703 0.09707056 -0.77899998
0.031912278 0.09707056 -0.77899998
0.03338385 0.09707056 -0.77899998
0.034855425 0.09707056 -0.77899998
0.036326997 0.09707056 -0.77899998
0.037798572 0.09707056 -0.77899998
0.039270144 0.09707056 -0.77899998
0.040741719 0.09707056 -0.77899998
0.042159103 0.096945956 -0.778
0.043628789 0.096945956 -0.778
0.024554409 0.095629618 -0.77899998
0.026025983 0.095629618 -0.77899998
0.027497556 0.095629618 -0.77899998
0.02896913 0.095629618 -0.77899998
0.030440703 0.095629618 -0.77899998
0.031912278 0.095629618 -0.77899998
0.03338385 0.095629618 -0.77899998
0.034855425 0.095629618 -0.77899998
0.036326997 0.095629618 -0.77899998
0.037798572 0.095629618 -0.77899998
0.039270144 0.095629618 -0.77899998
0.04068942 0.095506854 -0.778
0.042159103 0.095506854 -0.778
0.043628789 0.095506854 -0.778
0.024554409 0.094188668 -0.77899998
0.026025983 0.094188668 -0.77899998
0.027497556 0.094188668 -0.77899998
0.02896913 0.094188668 -0.77899998
0.030440703 0.094188668 -0.77899998
0.031912278 0.094188668 -0.77899998
0.03338385 0.094188668 -0.77899998
0.034855425 0.094188668 -0.77899998
0.036280368 0.09406776 -0.778
0.03775005 0.09406776 -0.778
0.039219737 0.09406776 -0.778
0.04068942 0.09406776 -0.778
0.042159103 0.09406776 -0.778
0.043628789 0.09406776 -0.778
0.024554409 0.092747718 -0.77899998
0.026025983 0.092747718 -0.77899998
0.027497556 0.092747718 -0.77899998
0.02896913 0.092747718 -0.77899998
0.030440703 0.092747718 -0.77899998
0.031912278 0.092747718 -0.77899998
0.03338385 0.092747718 -0.77899998
0.034810681 0.092628658 -0.778
0.036280368 0.092628658 -0.778
0.03775005 0.092628658 -0.778
0.039219737 0.092628658 -0.778
0.04068942 0.092628658 -0.778
0.042159103 0.092628658 -0.778
0.043628789 0.092628658 -0.778
0.02461745 0.091541193 -0.78100002
0.026025983 0.091306768 -0.77899998
0.027497556 0.091306768 -0.77899998
0.02896913 0.091306768 -0.77899998
0.030440703 0.091306768 -0.77899998
0.031912278 0.091306768 -0.77899998
0.033340998 0.091189563 -0.778
0.034810681 0.091189563 -0.778
0.036280368 0.091189563 -0.778
0.03775005 0.091189563 -0.778
0.039219737 0.091189563 -0.778
0.04068942 0.091189563 -0.778
0.042159103 0.091189563 -0.778
0.043628789 0.091189563 -0.778
0.026025983 0.089865826 -0.77899998
0.027497556 0.089865826 -0.77899998
0.02896913 0.089865826 -0.77899998
0.030440703 0.089865826 -0.77899998
0.031912278 0.089865826 -0.77899998
0.03338385 0.089865826 -0.77899998
0.034810681 0.089750469 -0.778
0.036326997 0.089865826 -0.77899998
0.037798572 0.089865826 -0.77899998
0.039270144 0.089865826 -0.77899998
0.040741719 0.089865826 -0.77899998
0.042213295 0.089865826 -0.77899998
0.027568154 0.088651903 -0.78100002
0.029043507 0.088651903 -0.78100002
0.030440703 0.088424876 -0.77899998
0.031912278 0.088424876 -0.77899998
0.03338385 0.088424876 -0.77899998
0.034855425 0.088424876 -0.77899998
0.036326997 0.088424876 -0.77899998
0.037798572 0.088424876 -0.77899998
0.039270144 0.088424876 -0.77899998
0.040741719 0.088424876 -0.77899998
0.042321675 0.088651903 -0.78100002
0.02763875 0.087430574 -0.78299999
0.029043507 0.087207258 -0.78100002
0.030518858 0.087207258 -0.78100002
0.031994209 0.087207258 -0.78100002
0.033469561 0.087207258 -0.78100002
0.034944914 0.087207258 -0.78100002
0.036420267 0.087207258 -0.78100002
0.037895616 0.087207258 -0.78100002
0.039370969 0.087207258 -0.78100002
0.04095092 0.087430574 -0.78299999
0.02763875 0.085982226 -0.78299999
0.02911788 0.085982226 -0.78299999
0.030597011 0.085982226 -0.78299999
0.032076139 0.085982226 -0.78299999
0.033555269 0.085982226 -0.78299999
0.035034399 0.085982226 -0.78299999
0.03651353 0.085982226 -0.78299999
0.03799266 0.085982226 -0.78299999
0.03947179 0.085982226 -0.78299999
0.02763875 0.084533878 -0.78299999
0.02911788 0.084533878 -0.78299999
0.030597011 0.084533878 -0.78299999
0.032076139 0.084533878 -0.78299999
0.033555269 0.084533878 -0.78299999
0.035034399 0.084533878 -0.78299999
0.03651353 0.084533878 -0.78299999
0.03799266 0.084533878 -0.78299999
0.02763875 0.083085537 -0.78299999
0.02911788 0.083085537 -0.78299999
0.030597011 0.083085537 -0.78299999
0.032076139 0.083085537 -0.78299999
0.033555269 0.083085537 -0.78299999
0.035034399 0.083085537 -0.78299999
0.036606796 0.083297759 -0.78500003
0.038089704 0.083297759 -0.78500003
0.02763875 0.081637189 -0.78299999
0.02911788 0.081637189 -0.78299999
0.030597011 0.081637189 -0.78299999
0.032076139 0.081637189 -0.78299999
0.033555269 0.081637189 -0.78299999
0.035123888 0.081845716 -0.78500003
0.036606796 0.081845716 -0.78500003
0.038089704 0.081845716 -0.78500003
0.02622644 0.080393672 -0.78500003
0.02763875 0.080188841 -0.78299999
0.02911788 0.080188841 -0.78299999
0.030597011 0.080188841 -0.78299999
0.032076139 0.080188841 -0.78299999
0.033555269 0.080188841 -0.78299999
0.035034399 0.080188841 -0.78299999
0.036606796 0.080393672 -0.78500003
0.038089704 0.080393672 -0.78500003
0.039673433 0.080598488 -0.787
0.02615962 0.078740492 -0.78299999
0.02763875 0.078740492 -0.78299999
0.02911788 0.078740492 -0.78299999
0.030597011 0.078740492 -0.78299999
0.032076139 0.078740492 -0.78299999
0.033555269 0.078740492 -0.78299999
0.035034399 0.078740492 -0.78299999
0.03651353 0.078740492 -0.78299999
0.03799266 0.078740492 -0.78299999
0.039572615 0.078941621 -0.78500003
0.024680492 0.077292152 -0.78299999
0.02615962 0.077292152 -0.78299999
0.02763875 0.077292152 -0.78299999
0.02911788 0.077292152 -0.78299999
0.030597011 0.077292152 -0.78299999
0.032076139 0.077292152 -0.78299999
0.033555269 0.077292152 -0.78299999
0.035034399 0.077292152 -0.78299999
0.03651353 0.077292152 -0.78299999
0.03799266 0.077292152 -0.78299999
0.03947179 0.077292152 -0.78299999
0.023201361 0.075843804 -0.78299999
0.024680492 0.075843804 -0.78299999
0.02615962 0.075843804 -0.78299999
0.02763875 0.075843804 -0.78299999
0.02911788 0.075843804 -0.78299999
0.030597011 0.075843804 -0.78299999
0.032076139 0.075843804 -0.78299999
0.033555269 0.075843804 -0.78299999
0.035034399 0.075843804 -0.78299999
0.03651353 0.075843804 -0.78299999
0.03799266 0.075843804 -0.78299999
0.03947179 0.075843804 -0.78299999
0.04095092 0.075843804 -0.78299999
0.023201361 0.074395455 -0.78299999
0.024680492 0.074395455 -0.78299999
0.02615962 0.074395455 -0.78299999
0.02763875 0.074395455 -0.78299999
0.02911788 0.074395455 -0.78299999
0.030597011 0.074395455 -0.78299999
0.032076139 0.074395455 -0.78299999
0.033555269 0.074395455 -0.78299999
0.035034399 0.074395455 -0.78299999
0.03651353 0.074395455 -0.78299999
0.03799266 0.074395455 -0.78299999
0.03947179 0.074395455 -0.78299999
0.04095092 0.074395455 -0.78299999
0.042430051 0.074395455 -0.78299999
0.024680492 0.072947107 -0.78299999
0.026092803 0.072760783 -0.78100002
0.02763875 0.072947107 -0.78299999
0.02911788 0.072947107 -0.78299999
0.030597011 0.072947107 -0.78299999
0.032076139 0.072947107 -0.78299999
0.033555269 0.072947107 -0.78299999
0.035034399 0.072947107 -0.78299999
0.03651353 0.072947107 -0.78299999
0.03799266 0.072947107 -0.78299999
0.03947179 0.072947107 -0.78299999
0.04095092 0.072947107 -0.78299999
0.042430051 0.072947107 -0.78299999
0.02461745 0.071316138 -0.78100002
0.026092803 0.071316138 -0.78100002
0.027568154 0.071316138 -0.78100002
0.029043507 0.071316138 -0.78100002
0.030518858 0.071316138 -0.78100002
0.031994209 0.071316138 -0.78100002
0.033469561 0.071316138 -0.78100002
0.034944914 0.071316138 -0.78100002
0.036420267 0.071316138 -0.78100002
0.03799266 0.071498759 -0.78299999
0.039370969 0.071316138 -0.78100002
0.040846322 0.071316138 -0.78100002
0.042321675 0.071316138 -0.78100002
0.043909181 0.071498759 -0.78299999
0.026092803 0.069871493 -0.78100002
0.027568154 0.069871493 -0.78100002
0.029043507 0.069871493 -0.78100002
0.030518858 0.069871493 -0.78100002
0.031994209 0.069871493 -0.78100002
0.033469561 0.069871493 -0.78100002
0.034944914 0.069871493 -0.78100002
0.036420267 0.069871493 -0.78100002
0.037895616 0.069871493 -0.78100002
0.039370969 0.069871493 -0.78100002
0.040846322 0.069871493 -0.78100002
0.042321675 0.069871493 -0.78100002
0.043797024 0.069871493 -0.78100002
0.026092803 0.06842684 -0.78100002
0.027568154 0.06842684 -0.78100002
0.029043507 0.06842684 -0.78100002
0.030518858 0.06842684 -0.78100002
0.031994209 0.06842684 -0.78100002
0.033469561 0.06842684 -0.78100002
0.034944914 0.06842684 -0.78100002
0.036420267 0.06842684 -0.78100002
0.037895616 0.06842684 -0.78100002
0.039370969 0.06842684 -0.78100002
0.040846322 0.06842684 -0.78100002
0.042321675 0.06842684 -0.78100002
0.02615962 0.067153722 -0.78299999
0.027568154 0.066982195 -0.78100002
0.029043507 0.066982195 -0.78100002
0.030518858 0.066982195 -0.78100002
0.031994209 0.066982195 -0.78100002
0.033469561 0.066982195 -0.78100002
0.034944914 0.066982195 -0.78100002
0.036420267 0.066982195 -0.78100002
0.037895616 0.066982195 -0.78100002
0.039370969 0.066982195 -0.78100002
0.040846322 0.066982195 -0.78100002
0.02763875 0.065705374 -0.78299999
0.02911788 0.065705374 -0.78299999
0.030597011 0.065705374 -0.78299999
0.032076139 0.065705374 -0.78299999
0.033555269 0.065705374 -0.78299999
0.035034399 0.065705374 -0.78299999
0.03651353 0.065705374 -0.78299999
0.03799266 0.065705374 -0.78299999
0.03947179 0.065705374 -0.78299999
0.04095092 0.065705374 -0.78299999
0.026326668 0.064667359 -0.78799999
0.027815243 0.064667359 -0.78799999
0.029192258 0.064421162 -0.78500003
0.030675165 0.064421162 -0.78500003
0.032158073 0.064421162 -0.78500003
0.033640981 0.064421162 -0.78500003
0.035034399 0.064257033 -0.78299999
0.03651353 0.064257033 -0.78299999
0.03799266 0.064257033 -0.78299999
0.03947179 0.064257033 -0.78299999
0.04095092 0.064257033 -0.78299999
0.026326668 0.063209757 -0.78799999
0.027815243 0.063209757 -0.78799999
0.029303819 0.063209757 -0.78799999
0.030753318 0.063129544 -0.787
0.032240003 0.063129544 -0.787
0.033640981 0.062969118 -0.78500003
0.035123888 0.062969118 -0.78500003
0.036606796 0.062969118 -0.78500003
0.038089704 0.062969118 -0.78500003
0.03947179 0.062808685 -0.78299999
0.04095092 0.062808685 -0.78299999
0.024901135 0.061908901 -0.79000002
0.026326668 0.061752167 -0.78799999
0.027815243 0.061752167 -0.78799999
0.029303819 0.061752167 -0.78799999
0.030792393 0.061752167 -0.78799999
0.03228097 0.061752167 -0.78799999
0.033726688 0.061673801 -0.787
0.035213377 0.061673801 -0.787
0.036700062 0.061673801 -0.787
0.038186748 0.061673801 -0.787
0.039572615 0.061517071 -0.78500003
0.041055523 0.061517071 -0.78500003
0.026393488 0.060447603 -0.79000002
0.027885841 0.060447603 -0.79000002
0.029303819 0.060294569 -0.78799999
0.030792393 0.060294569 -0.78799999
0.03228097 0.060294569 -0.78799999
0.033769544 0.060294569 -0.78799999
0.035258118 0.060294569 -0.78799999
0.036746696 0.060294569 -0.78799999
0.038186748 0.060218055 -0.787
0.039673433 0.060218055 -0.787
0.041160122 0.060218055 -0.787
0.026460307 0.059135642 -0.792
0.027885841 0.05898631 -0.79000002
0.029378194 0.05898631 -0.79000002
0.030792393 0.058836974 -0.78799999
0.03228097 0.058836974 -0.78799999
0.033769544 0.058836974 -0.78799999
0.035258118 0.058836974 -0.78799999
0.036746696 0.058836974 -0.78799999
0.038235269 0.058836974 -0.78799999
0.039723843 0.058836974 -0.78799999
0.041212421 0.058836974 -0.78799999
0.026527125 0.057816282 -0.79400003
0.027956437 0.057670645 -0.792
0.029378194 0.057525016 -0.79000002
0.030870548 0.057525016 -0.79000002
0.032362901 0.057525016 -0.79000002
0.033769544 0.05737938 -0.78799999
0.035258118 0.05737938 -0.78799999
0.036746696 0.05737938 -0.78799999
0.038235269 0.05737938 -0.78799999
0.039723843 0.05737938 -0.78799999
0.026527125 0.056347586 -0.79400003
0.027956437 0.056205653 -0.792
0.029378194 0.056063719 -0.79000002
0.030870548 0.056063719 -0.79000002
0.032362901 0.056063719 -0.79000002
0.033855256 0.056063719 -0.79000002
0.035347607 0.056063719 -0.79000002
0.036839962 0.056063719 -0.79000002
0.038332313 0.056063719 -0.79000002
0.039824668 0.056063719 -0.79000002
0.026527125 0.054878894 -0.79400003
0.027956437 0.054740656 -0.792
0.02945257 0.054740656 -0.792
0.030870548 0.054602426 -0.79000002
0.032362901 0.054602426 -0.79000002
0.033855256 0.054602426 -0.79000002
0.035347607 0.054602426 -0.79000002
0.036839962 0.054602426 -0.79000002
0.038332313 0.054602426 -0.79000002
0.03992549 0.054740656 -0.792
0.02945257 0.053275663 -0.792
0.0309487 0.053275663 -0.792
0.032444831 0.053275663 -0.792
0.033940963 0.053275663 -0.792
0.035437096 0.053275663 -0.792
0.036933225 0.053275663 -0.792
0.038429357 0.053275663 -0.792
