# .PCD v0.7 - Point Cloud Data file format
VERSION 0.7
FIELDS x y z
SIZE 4 4 4
TYPE F F F
COUNT 1 1 1
WIDTH 872
HEIGHT 1
VIEWPOINT 0 0 0 1 0 0 0
POINTS 872
DATA ascii
0.008549693 0.13599876 -0.796
0.01005338 0.13599876 -0.796
0.011557068 0.13599876 -0.796
0.0055562425 0.13486436 -0.79799998
0.0070460052 0.13452636 -0.796
0.008549693 0.13452636 -0.796
0.01005338 0.13452636 -0.796
0.011557068 0.13452636 -0.796
0.01302794 0.13418835 -0.79400003
0.01452785 0.13418835 -0.79400003
0.01602776 0.13418835 -0.79400003
0.01752767 0.13418835 -0.79400003
0.0010338456 0.13338827 -0.79799998
0.0025349422 0.13305396 -0.796
0.0040386296 0.13305396 -0.796
0.0055423174 0.13305396 -0.796
0.0070460052 0.13305396 -0.796
0.008549693 0.13305396 -0.796
0.010028121 0.13271967 -0.79400003
0.01152803 0.13271967 -0.79400003
0.01302794 0.13271967 -0.79400003
0.01452785 0.13271967 -0.79400003
0.015987387 0.13238534 -0.792
0.017483518 0.13238534 -0.792
0.01897965 0.13238534 -0.792
0.020475781 0.13238534 -0.792
0.021971911 0.13238534 -0.792
0.0010338456 0.13191217 -0.79799998
0.0025349422 0.13158157 -0.796
0.0040386296 0.13158157 -0.796
0.0055423174 0.13158157 -0.796
0.0070460052 0.13158157 -0.796
0.0085282112 0.13125096 -0.79400003
0.010028121 0.13125096 -0.79400003
0.01152803 0.13125096 -0.79400003
0.01302794 0.13125096 -0.79400003
0.014491255 0.13092035 -0.792
0.015987387 0.13092035 -0.792
0.017483518 0.13092035 -0.792
0.01897965 0.13092035 -0.792
0.020475781 0.13092035 -0.792
0.021971911 0.13092035 -0.792
0.023468044 0.13092035 -0.792
0.0025349422 0.13010918 -0.796
0.0040386296 0.13010918 -0.796
0.0055423174 0.13010918 -0.796
0.0070460052 0.13010918 -0.796
0.0085282112 0.12978227 -0.79400003
0.010002861 0.12945536 -0.792
0.011498992 0.12945536 -0.792
0.012995124 0.12945536 -0.792
0.014491255 0.12945536 -0.792
0.015947014 0.12912846 -0.79000002
0.017439367 0.12912846 -0.79000002
0.018931722 0.12912846 -0.79000002
0.020424075 0.12912846 -0.79000002
0.021916429 0.12912846 -0.79000002
0.023468044 0.12945536 -0.792
0.0055423174 0.12863678 -0.796
0.0070460052 0.12863678 -0.796
0.0085067293 0.12799037 -0.792
0.010002861 0.12799037 -0.792
0.011469955 0.12766716 -0.79000002
0.012962308 0.12766716 -0.79000002
0.014454661 0.12766716 -0.79000002
0.015947014 0.12766716 -0.79000002
0.017439367 0.12766716 -0.79000002
0.018931722 0.12766716 -0.79000002
0.020424075 0.12766716 -0.79000002
0.021916429 0.12766716 -0.79000002
0.023408782 0.12766716 -0.79000002
0.0070283017 0.12684488 -0.79400003
0.0084852483 0.12620586 -0.79000002
0.0099776015 0.12620586 -0.79000002
0.011469955 0.12620586 -0.79000002
0.012929492 0.12588635 -0.78799999
0.014418066 0.12588635 -0.78799999
0.015906641 0.12588635 -0.78799999
0.017395217 0.12588635 -0.78799999
0.018883793 0.12588635 -0.78799999
0.020372367 0.12588635 -0.78799999
0.021860942 0.12588635 -0.78799999
0.023349518 0.12588635 -0.78799999
0.024901135 0.12620586 -0.79000002
0.0070105977 0.12506038 -0.792
0.0084852483 0.12474457 -0.79000002
0.0099776015 0.12474457 -0.79000002
0.011440916 0.12442876 -0.78799999
0.012929492 0.12442876 -0.78799999
0.014418066 0.12442876 -0.78799999
0.015886456 0.12427086 -0.787
0.017373143 0.12427086 -0.787
0.018859828 0.12427086 -0.787
0.020346515 0.12427086 -0.787
0.0218332 0.12427086 -0.787
0.023319887 0.12427086 -0.787
0.024838094 0.12442876 -0.78799999
0.0070105977 0.12359539 -0.792
0.0084852483 0.12328328 -0.79000002
0.0099523412 0.12297116 -0.78799999
0.011440916 0.12297116 -0.78799999
0.012929492 0.12297116 -0.78799999
0.01439977 0.12281511 -0.787
0.015886456 0.12281511 -0.787
0.017328992 0.122503 -0.78500003
0.0188119 0.122503 -0.78500003
0.020294808 0.122503 -0.78500003
0.021777717 0.122503 -0.78500003
0.023260625 0.122503 -0.78500003
0.024806572 0.12281511 -0.787
0.20389396 0.14435068 -0.92500001
0.0070283017 0.1224388 -0.79400003
0.0084852483 0.12182198 -0.79000002
0.0099523412 0.12151357 -0.78799999
0.011440916 0.12151357 -0.78799999
0.012913084 0.12135936 -0.787
0.01439977 0.12135936 -0.787
0.015846085 0.12105096 -0.78500003
0.017284842 0.12074254 -0.78299999
0.018763971 0.12074254 -0.78299999
0.020243101 0.12074254 -0.78299999
0.021722231 0.12074254 -0.78299999
0.023201361 0.12074254 -0.78299999
0.024680492 0.12074254 -0.78299999
0.026092803 0.12043414 -0.78100002
0.20214659 0.14263967 -0.92500001
0.0070283017 0.12097012 -0.79400003
0.0085067293 0.12066539 -0.792
0.0099523412 0.12005597 -0.78799999
0.011440916 0.12005597 -0.78799999
0.012913084 0.11990362 -0.787
0.014363176 0.11959891 -0.78500003
0.015805712 0.1192942 -0.78299999
0.017284842 0.1192942 -0.78299999
0.018763971 0.1192942 -0.78299999
0.020191396 0.11898949 -0.78100002
0.021666747 0.11898949 -0.78100002
0.023142099 0.11898949 -0.78100002
0.024554409 0.11868478 -0.77899998
0.025992574 0.11853242 -0.778
0.027462259 0.11853242 -0.778
0.028931944 0.11853242 -0.778
0.008549693 0.11980242 -0.796
0.0099776015 0.1188994 -0.79000002
0.011440916 0.11859838 -0.78799999
0.012913084 0.11844788 -0.787
0.014363176 0.11814687 -0.78500003
0.015805712 0.11784585 -0.78299999
0.017240692 0.11754484 -0.78100002
0.018716043 0.11754484 -0.78100002
0.020139689 0.11724383 -0.77899998
0.02158352 0.11709332 -0.778
0.023053205 0.11709332 -0.778
0.024459848 0.11679231 -0.77600002
0.025925756 0.11679231 -0.77600002
0.027391663 0.11679231 -0.77600002
0.028857568 0.11679231 -0.77600002
0.030323476 0.11679231 -0.77600002
0.011440916 0.11714078 -0.78799999
0.012880269 0.11669482 -0.78500003
0.014326582 0.11639751 -0.78299999
0.015765339 0.1161002 -0.78100002
0.017240692 0.1161002 -0.78100002
0.018668115 0.11580288 -0.77899998
0.020113835 0.11565422 -0.778
0.021528035 0.11535692 -0.77600002
0.022934679 0.1150596 -0.77399999
0.024396807 0.1150596 -0.77399999
0.025858935 0.1150596 -0.77399999
0.027321063 0.1150596 -0.77399999
0.028783193 0.1150596 -0.77399999
0.030245321 0.1150596 -0.77399999
0.031707451 0.1150596 -0.77399999
0.033169579 0.1150596 -0.77399999
0.012880269 0.11524277 -0.78500003
0.014289988 0.11465555 -0.78100002
0.015765339 0.11465555 -0.78100002
0.01719654 0.11436193 -0.77899998
0.01864415 0.11421513 -0.778
0.02006213 0.11392152 -0.77600002
0.021472551 0.1136279 -0.77399999
0.022934679 0.1136279 -0.77399999
0.024396807 0.1136279 -0.77399999
0.025858935 0.1136279 -0.77399999
0.027321063 0.1136279 -0.77399999
0.028783193 0.1136279 -0.77399999
0.030245321 0.1136279 -0.77399999
0.031707451 0.1136279 -0.77399999
0.033169579 0.1136279 -0.77399999
0.034631707 0.1136279 -0.77399999
0.012880269 0.11379073 -0.78500003
0.014289988 0.1132109 -0.78100002
0.015765339 0.1132109 -0.78100002
0.01719654 0.11292098 -0.77899998
0.018596223 0.11248612 -0.77600002
0.02006213 0.11248612 -0.77600002
0.021472551 0.11219621 -0.77399999
0.022934679 0.11219621 -0.77399999
0.024396807 0.11219621 -0.77399999
0.025858935 0.11219621 -0.77399999
0.027321063 0.11219621 -0.77399999
0.028783193 0.11219621 -0.77399999
0.030245321 0.11219621 -0.77399999
0.031707451 0.11219621 -0.77399999
0.033169579 0.11219621 -0.77399999
0.034631707 0.11219621 -0.77399999
0.012880269 0.11233868 -0.78500003
0.014326582 0.11205246 -0.78299999
0.015765339 0.11176626 -0.78100002
0.01719654 0.11148003 -0.77899998
0.018596223 0.11105072 -0.77600002
0.02006213 0.11105072 -0.77600002
0.021472551 0.1107645 -0.77399999
0.022934679 0.1107645 -0.77399999
0.024396807 0.1107645 -0.77399999
0.025858935 0.1107645 -0.77399999
0.027321063 0.1107645 -0.77399999
0.028783193 0.1107645 -0.77399999
0.030245321 0.1107645 -0.77399999
0.031707451 0.1107645 -0.77399999
0.033169579 0.1107645 -0.77399999
0.034631707 0.1107645 -0.77399999
0.014363176 0.11088664 -0.78500003
0.015765339 0.11032161 -0.78100002
0.01719654 0.11003909 -0.77899998
0.018596223 0.10961533 -0.77600002
0.02006213 0.10961533 -0.77600002
0.021472551 0.10933281 -0.77399999
0.022934679 0.10933281 -0.77399999
0.024396807 0.10933281 -0.77399999
0.025858935 0.10933281 -0.77399999
0.027321063 0.10933281 -0.77399999
0.028783193 0.10933281 -0.77399999
0.030245321 0.10933281 -0.77399999
0.031707451 0.10933281 -0.77399999
0.033169579 0.10933281 -0.77399999
0.034631707 0.10933281 -0.77399999
0.036093835 0.10933281 -0.77399999
0.01439977 0.10971341 -0.787
0.015805712 0.10915577 -0.78299999
0.01719654 0.10859814 -0.77899998
0.01864415 0.10845874 -0.778
0.02006213 0.10817993 -0.77600002
0.021472551 0.10790111 -0.77399999
0.022934679 0.10790111 -0.77399999
0.024396807 0.10790111 -0.77399999
0.025858935 0.10790111 -0.77399999
0.027321063 0.10790111 -0.77399999
0.028783193 0.10790111 -0.77399999
0.030245321 0.10790111 -0.77399999
0.031707451 0.10790111 -0.77399999
0.033169579 0.10790111 -0.77399999
0.034631707 0.10790111 -0.77399999
0.036187101 0.10817993 -0.77600002
0.014418066 0.10839521 -0.78799999
0.015805712 0.10770743 -0.78299999
0.017240692 0.10743231 -0.78100002
0.018668115 0.10715719 -0.77899998
0.02006213 0.10674453 -0.77600002
0.021528035 0.10674453 -0.77600002
0.022934679 0.10646941 -0.77399999
0.024396807 0.10646941 -0.77399999
0.025858935 0.10646941 -0.77399999
0.027321063 0.10646941 -0.77399999
0.028783193 0.10646941 -0.77399999
0.030245321 0.10646941 -0.77399999
0.031789381 0.10674453 -0.77600002
0.033255287 0.10674453 -0.77600002
0.034721196 0.10674453 -0.77600002
0.014418066 0.10693762 -0.78799999
0.015805712 0.10625908 -0.78299999
0.017240692 0.10598767 -0.78100002
0.018668115 0.10571625 -0.77899998
0.020113835 0.10558054 -0.778
0.021528035 0.10530913 -0.77600002
0.022993943 0.10530913 -0.77600002
0.024396807 0.10503771 -0.77399999
0.025858935 0.10503771 -0.77399999
0.027391663 0.10530913 -0.77600002
0.028857568 0.10530913 -0.77600002
0.030323476 0.10530913 -0.77600002
0.031789381 0.10530913 -0.77600002
0.033340998 0.10558054 -0.778
0.034810681 0.10558054 -0.778
0.010192309 0.10802332 -0.80699998
0.011687739 0.10775561 -0.80500001
0.013126387 0.10708632 -0.80000001
0.014418066 0.10548002 -0.78799999
0.015805712 0.10481073 -0.78299999
0.017284842 0.10481073 -0.78299999
0.018716043 0.10454302 -0.78100002
0.020139689 0.1042753 -0.77899998
0.02158352 0.10414144 -0.778
0.022993943 0.10387373 -0.77600002
0.024459848 0.10387373 -0.77600002
0.025925756 0.10387373 -0.77600002
0.027391663 0.10387373 -0.77600002
0.028857568 0.10387373 -0.77600002
0.030323476 0.10387373 -0.77600002
0.031871311 0.10414144 -0.778
0.033340998 0.10414144 -0.778
0.034855425 0.1042753 -0.77899998
0.0086678416 0.10653058 -0.80699998
0.010167049 0.10626657 -0.80500001
0.011629662 0.10573854 -0.801
0.013126387 0.10560653 -0.80000001
0.014418066 0.10402243 -0.78799999
0.015846085 0.10362641 -0.78500003
0.017284842 0.10336239 -0.78299999
0.018716043 0.10309837 -0.78100002
0.020191396 0.10309837 -0.78100002
0.021611262 0.10283435 -0.77899998
0.023053205 0.10270235 -0.778
0.024459848 0.10243833 -0.77600002
0.025925756 0.10243833 -0.77600002
0.027391663 0.10243833 -0.77600002
0.028857568 0.10243833 -0.77600002
0.030401627 0.10270235 -0.778
0.031871311 0.10270235 -0.778
0.03338385 0.10283435 -0.77899998
0.034855425 0.10283435 -0.77899998
0.0086678416 0.10503784 -0.80699998
0.010167049 0.10477753 -0.80500001
0.011687739 0.10477753 -0.80500001
0.01452785 0.10334579 -0.79400003
0.015886456 0.10243467 -0.787
0.017284842 0.10191404 -0.78299999
0.018716043 0.10165372 -0.78100002
0.020191396 0.10165372 -0.78100002
0.021611262 0.1013934 -0.77899998
0.023053205 0.10126325 -0.778
0.024522889 0.10126325 -0.778
0.025925756 0.10100293 -0.77600002
0.027391663 0.10100293 -0.77600002
0.028931944 0.10126325 -0.778
0.030401627 0.10126325 -0.778
0.031871311 0.10126325 -0.778
0.03338385 0.1013934 -0.77899998
0.034855425 0.1013934 -0.77899998
0.010192309 0.1035451 -0.80699998
0.015886456 0.10097893 -0.787
0.017284842 0.10046569 -0.78299999
0.018763971 0.10046569 -0.78299999
0.020191396 0.10020908 -0.78100002
0.021611262 0.099952459 -0.77899998
0.023082836 0.099952459 -0.77899998
0.024522889 0.099824153 -0.778
0.025992574 0.099824153 -0.778
0.027462259 0.099824153 -0.778
0.028931944 0.099824153 -0.778
0.030401627 0.099824153 -0.778
0.031871311 0.099824153 -0.778
0.03338385 0.099952459 -0.77899998
0.034855425 0.099952459 -0.77899998
0.015886456 0.099523187 -0.787
0.017284842 0.099017344 -0.78299999
0.018763971 0.099017344 -0.78299999
0.020191396 0.098764434 -0.78100002
0.021666747 0.098764434 -0.78100002
0.023082836 0.09851151 -0.77899998
0.024522889 0.098385051 -0.778
0.025992574 0.098385051 -0.778
0.027462259 0.098385051 -0.778
0.028931944 0.098385051 -0.778
0.030401627 0.098385051 -0.778
0.031871311 0.098385051 -0.778
0.03338385 0.09851151 -0.77899998
0.034855425 0.09851151 -0.77899998
0.036326997 0.09851151 -0.77899998
0.015886456 0.09806744 -0.787
0.017328992 0.097818226 -0.78500003
0.018763971 0.097569004 -0.78299999
0.020191396 0.097319782 -0.78100002
0.021666747 0.097319782 -0.78100002
0.023082836 0.09707056 -0.77899998
0.024522889 0.096945956 -0.778
0.025992574 0.096945956 -0.778
0.027462259 0.096945956 -0.778
0.028931944 0.096945956 -0.778
0.030401627 0.096945956 -0.778
0.031871311 0.096945956 -0.778
0.033340998 0.096945956 -0.778
0.034855425 0.09707056 -0.77899998
0.036326997 0.09707056 -0.77899998
0.037798572 0.09707056 -0.77899998
0.015886456 0.096611694 -0.787
0.017284842 0.096120656 -0.78299999
0.018763971 0.096120656 -0.78299999
0.020191396 0.095875137 -0.78100002
0.021611262 0.095629618 -0.77899998
0.023082836 0.095629618 -0.77899998
0.024522889 0.095506854 -0.778
0.025992574 0.095506854 -0.778
0.027462259 0.095506854 -0.778
0.028931944 0.095506854 -0.778
0.030401627 0.095506854 -0.778
0.031871311 0.095506854 -0.778
0.033340998 0.095506854 -0.778
0.034855425 0.095629618 -0.77899998
0.036326997 0.095629618 -0.77899998
0.037798572 0.095629618 -0.77899998
0.039270144 0.095629618 -0.77899998
0.015846085 0.094914131 -0.78500003
0.017284842 0.094672307 -0.78299999
0.018763971 0.094672307 -0.78299999
0.020191396 0.094430491 -0.78100002
0.021611262 0.094188668 -0.77899998
0.023082836 0.094188668 -0.77899998
0.024522889 0.09406776 -0.778
0.025992574 0.09406776 -0.778
0.027462259 0.09406776 -0.778
0.028931944 0.09406776 -0.778
0.030401627 0.09406776 -0.778
0.031871311 0.09406776 -0.778
0.033340998 0.09406776 -0.778
0.034810681 0.09406776 -0.778
0.036326997 0.094188668 -0.77899998
0.037798572 0.094188668 -0.77899998
0.039270144 0.094188668 -0.77899998
0.040741719 0.094188668 -0.77899998
0.015846085 0.093462087 -0.78500003
0.017284842 0.093223959 -0.78299999
0.018763971 0.093223959 -0.78299999
0.020191396 0.092985846 -0.78100002
0.021666747 0.092985846 -0.78100002
0.023082836 0.092747718 -0.77899998
0.024522889 0.092628658 -0.778
0.025992574 0.092628658 -0.778
0.027462259 0.092628658 -0.778
0.028857568 0.092390545 -0.77600002
0.030323476 0.092390545 -0.77600002
0.031789381 0.092390545 -0.77600002
0.033340998 0.092628658 -0.778
0.034810681 0.092628658 -0.778
0.036280368 0.092628658 -0.778
0.037798572 0.092747718 -0.77899998
0.039270144 0.092747718 -0.77899998
0.040741719 0.092747718 -0.77899998
-0.0036940179 0.099042654 -0.84500003
-0.0020928013 0.098808229 -0.84299999
0.015886456 0.092244454 -0.787
0.017328992 0.092010036 -0.78500003
0.018763971 0.091775611 -0.78299999
0.020243101 0.091775611 -0.78299999
0.021666747 0.091541193 -0.78100002
0.023082836 0.091306768 -0.77899998
0.024522889 0.091189563 -0.778
0.025992574 0.091189563 -0.778
0.027391663 0.090955146 -0.77600002
0.028857568 0.090955146 -0.77600002
0.030323476 0.090955146 -0.77600002
0.031789381 0.090955146 -0.77600002
0.033255287 0.090955146 -0.77600002
0.034810681 0.091189563 -0.778
0.036280368 0.091189563 -0.778
0.03775005 0.091189563 -0.778
0.039270144 0.091306768 -0.77899998
0.040741719 0.091306768 -0.77899998
-0.0036852744 0.097248897 -0.84299999
-0.0020928013 0.097248897 -0.84299999
-0.00050032808 0.097248897 -0.84299999
0.017373143 0.090788707 -0.787
0.0188119 0.090557992 -0.78500003
0.020243101 0.09032727 -0.78299999
0.021666747 0.090096548 -0.78100002
0.023082836 0.089865826 -0.77899998
0.024522889 0.089750469 -0.778
0.025992574 0.089750469 -0.778
0.027391663 0.089519747 -0.77600002
0.028857568 0.089519747 -0.77600002
0.030323476 0.089519747 -0.77600002
0.031789381 0.089519747 -0.77600002
0.033255287 0.089519747 -0.77600002
0.034721196 0.089519747 -0.77600002
0.036280368 0.089750469 -0.778
0.03775005 0.089750469 -0.778
0.039270144 0.089865826 -0.77899998
0.018859828 0.089332968 -0.787
0.020243101 0.088878922 -0.78299999
0.021666747 0.088651903 -0.78100002
0.023142099 0.088651903 -0.78100002
0.024554409 0.088424876 -0.77899998
0.025992574 0.088311367 -0.778
0.027462259 0.088311367 -0.778
0.028857568 0.088084348 -0.77600002
0.030323476 0.088084348 -0.77600002
0.031789381 0.088084348 -0.77600002
0.033255287 0.088084348 -0.77600002
0.034810681 0.088311367 -0.778
0.036280368 0.088311367 -0.778
0.03775005 0.088311367 -0.778
0.020294808 0.087653898 -0.78500003
0.021722231 0.087430574 -0.78299999
0.023142099 0.087207258 -0.78100002
0.02461745 0.087207258 -0.78100002
0.026025983 0.086983927 -0.77899998
0.027462259 0.086872272 -0.778
0.028931944 0.086872272 -0.778
0.030401627 0.086872272 -0.778
0.031871311 0.086872272 -0.778
0.033340998 0.086872272 -0.778
0.034810681 0.086872272 -0.778
0.036326997 0.086983927 -0.77899998
0.0010843719 0.091912039 -0.83700001
0.021722231 0.085982226 -0.78299999
0.023142099 0.085762605 -0.78100002
0.02461745 0.085762605 -0.78100002
0.026092803 0.085762605 -0.78100002
0.027497556 0.085542984 -0.77899998
0.028931944 0.08543317 -0.778
0.030401627 0.08543317 -0.778
0.031912278 0.085542984 -0.77899998
0.03338385 0.085542984 -0.77899998
0.034855425 0.085542984 -0.77899998
0.036420267 0.085762605 -0.78100002
0.0026591416 0.090147883 -0.83499998
0.021722231 0.084533878 -0.78299999
0.023142099 0.08431796 -0.78100002
0.02461745 0.08431796 -0.78100002
0.026092803 0.08431796 -0.78100002
0.027568154 0.08431796 -0.78100002
0.02896913 0.084102035 -0.77899998
0.030440703 0.084102035 -0.77899998
0.031994209 0.08431796 -0.78100002
0.033469561 0.08431796 -0.78100002
0.034944914 0.08431796 -0.78100002
0.036420267 0.08431796 -0.78100002
0.0088182129 0.087117784 -0.82099998
0.010343867 0.086905561 -0.81900001
0.021722231 0.083085537 -0.78299999
0.023201361 0.083085537 -0.78299999
0.02461745 0.082873315 -0.78100002
0.026092803 0.082873315 -0.78100002
0.027568154 0.082873315 -0.78100002
0.029043507 0.082873315 -0.78100002
0.030518858 0.082873315 -0.78100002
0.031994209 0.082873315 -0.78100002
0.033469561 0.082873315 -0.78100002
0.034944914 0.082873315 -0.78100002
0.03651353 0.083085537 -0.78299999
0.03799266 0.083085537 -0.78299999
0.0057720868 0.086433247 -0.829
0.0072672991 0.085599147 -0.82099998
0.0087967319 0.08539062 -0.81900001
0.010318607 0.085182093 -0.81699997
0.011832927 0.084973574 -0.815
0.013339692 0.084765054 -0.81300002
0.014838899 0.084556527 -0.81099999
0.021777717 0.081845716 -0.78500003
0.023201361 0.081637189 -0.78299999
0.02461745 0.081428669 -0.78100002
0.026092803 0.081428669 -0.78100002
0.027568154 0.081428669 -0.78100002
0.029043507 0.081428669 -0.78100002
0.030518858 0.081428669 -0.78100002
0.031994209 0.081428669 -0.78100002
0.033469561 0.081428669 -0.78100002
0.035034399 0.081637189 -0.78299999
0.03651353 0.081637189 -0.78299999
0.03799266 0.081637189 -0.78299999
0.0057442361 0.084490158 -0.82499999
0.0072672991 0.08408051 -0.82099998
0.0088182129 0.08408051 -0.82099998
0.010318607 0.083670862 -0.81699997
0.011832927 0.083466038 -0.815
0.013339692 0.083261214 -0.81300002
0.014838899 0.083056383 -0.81099999
0.0218332 0.080598488 -0.787
0.023201361 0.080188841 -0.78299999
0.02461745 0.079984017 -0.78100002
0.026092803 0.079984017 -0.78100002
0.027568154 0.079984017 -0.78100002
0.029043507 0.079984017 -0.78100002
0.030518858 0.079984017 -0.78100002
0.031994209 0.079984017 -0.78100002
0.033469561 0.079984017 -0.78100002
0.035034399 0.080188841 -0.78299999
0.03651353 0.080188841 -0.78299999
0.03799266 0.080188841 -0.78299999
0.039673433 0.080598488 -0.787
0.0057442361 0.082964122 -0.82499999
0.0072672991 0.082561873 -0.82099998
0.0088182129 0.082561873 -0.82099998
0.010369127 0.082561873 -0.82099998
0.023201361 0.078740492 -0.78299999
0.02461745 0.078539371 -0.78100002
0.026092803 0.078539371 -0.78100002
0.027568154 0.078539371 -0.78100002
0.029043507 0.078539371 -0.78100002
0.030518858 0.078539371 -0.78100002
0.031994209 0.078539371 -0.78100002
0.033469561 0.078539371 -0.78100002
0.034944914 0.078539371 -0.78100002
0.03651353 0.078740492 -0.78299999
0.03799266 0.078740492 -0.78299999
0.039572615 0.078941621 -0.78500003
0.0057442361 0.081438087 -0.82499999
0.0072850026 0.081240661 -0.82300001
0.0088182129 0.081043236 -0.82099998
0.010394387 0.081240661 -0.82300001
0.023201361 0.077292152 -0.78299999
0.024680492 0.077292152 -0.78299999
0.026092803 0.077094726 -0.78100002
0.027568154 0.077094726 -0.78100002
0.029043507 0.077094726 -0.78100002
0.030518858 0.077094726 -0.78100002
0.031994209 0.077094726 -0.78100002
0.033469561 0.077094726 -0.78100002
0.034944914 0.077094726 -0.78100002
0.036420267 0.077094726 -0.78100002
0.03799266 0.077292152 -0.78299999
0.03947179 0.077292152 -0.78299999
0.0072850026 0.079718329 -0.82300001
0.0088396948 0.079718329 -0.82300001
0.010369127 0.079524599 -0.82099998
0.023260625 0.076037534 -0.78500003
0.024680492 0.075843804 -0.78299999
0.026092803 0.075650081 -0.78100002
0.027568154 0.075650081 -0.78100002
0.029043507 0.075650081 -0.78100002
0.030518858 0.075650081 -0.78100002
0.031994209 0.075650081 -0.78100002
0.033469561 0.075650081 -0.78100002
0.034944914 0.075650081 -0.78100002
0.036420267 0.075650081 -0.78100002
0.037895616 0.075650081 -0.78100002
0.039370969 0.075650081 -0.78100002
0.0088182129 0.078005962 -0.82099998
0.010369127 0.078005962 -0.82099998
0.011891004 0.077815935 -0.81900001
0.013372507 0.077435881 -0.815
0.014838899 0.077055827 -0.81099999
0.016290177 0.076675773 -0.80699998
0.023260625 0.074585482 -0.78500003
0.024680492 0.074395455 -0.78299999
0.026092803 0.074205428 -0.78100002
0.027568154 0.074205428 -0.78100002
0.029043507 0.074205428 -0.78100002
0.030518858 0.074205428 -0.78100002
0.031994209 0.074205428 -0.78100002
0.033469561 0.074205428 -0.78100002
0.034944914 0.074205428 -0.78100002
0.036420267 0.074205428 -0.78100002
0.037895616 0.074205428 -0.78100002
0.039370969 0.074205428 -0.78100002
0.04095092 0.074395455 -0.78299999
0.010343867 0.076301001 -0.81900001
0.011832927 0.075928345 -0.815
0.013306875 0.07555569 -0.81099999
0.014765711 0.075183034 -0.80699998
0.016290177 0.075183034 -0.80699998
0.017814646 0.075183034 -0.80699998
0.024680492 0.072947107 -0.78299999
0.026092803 0.072760783 -0.78100002
0.027568154 0.072760783 -0.78100002
0.029043507 0.072760783 -0.78100002
0.030440703 0.072574452 -0.77899998
0.031912278 0.072574452 -0.77899998
0.033469561 0.072760783 -0.78100002
0.034944914 0.072760783 -0.78100002
0.036420267 0.072760783 -0.78100002
0.037895616 0.072760783 -0.78100002
0.039370969 0.072760783 -0.78100002
0.040846322 0.072760783 -0.78100002
0.042321675 0.072760783 -0.78100002
0.043909181 0.072947107 -0.78299999
0.045388311 0.072947107 -0.78299999
0.011832927 0.07442081 -0.815
0.013306875 0.074055552 -0.81099999
0.014802305 0.073872924 -0.80900002
0.016290177 0.073690295 -0.80699998
0.017814646 0.073690295 -0.80699998
0.02461745 0.071316138 -0.78100002
0.026092803 0.071316138 -0.78100002
0.027568154 0.071316138 -0.78100002
0.02896913 0.071133509 -0.77899998
0.030440703 0.071133509 -0.77899998
0.031912278 0.071133509 -0.77899998
0.03338385 0.071133509 -0.77899998
0.034944914 0.071316138 -0.78100002
0.036420267 0.071316138 -0.78100002
0.037895616 0.071316138 -0.78100002
0.039370969 0.071316138 -0.78100002
0.040846322 0.071316138 -0.78100002
0.042321675 0.071316138 -0.78100002
0.043797024 0.071316138 -0.78100002
0.045388311 0.071498759 -0.78299999
0.011832927 0.072913267 -0.815
0.013306875 0.072555415 -0.81099999
0.014802305 0.072376482 -0.80900002
0.016290177 0.072197556 -0.80699998
0.017814646 0.072197556 -0.80699998
0.02461745 0.069871493 -0.78100002
0.026092803 0.069871493 -0.78100002
0.027497556 0.06969256 -0.77899998
0.02896913 0.06969256 -0.77899998
0.030440703 0.06969256 -0.77899998
0.031912278 0.06969256 -0.77899998
0.03338385 0.06969256 -0.77899998
0.034855425 0.06969256 -0.77899998
0.036420267 0.069871493 -0.78100002
0.037895616 0.069871493 -0.78100002
0.039270144 0.06969256 -0.77899998
0.040741719 0.06969256 -0.77899998
0.042213295 0.06969256 -0.77899998
0.043797024 0.069871493 -0.78100002
0.045272376 0.069871493 -0.78100002
0.013306875 0.071055271 -0.81099999
0.014802305 0.070880048 -0.80900002
0.016330549 0.070880048 -0.80900002
0.017858796 0.070880048 -0.80900002
0.01938704 0.070880048 -0.80900002
0.02461745 0.06842684 -0.78100002
0.026092803 0.06842684 -0.78100002
0.027497556 0.06825161 -0.77899998
0.02896913 0.06825161 -0.77899998
0.030440703 0.06825161 -0.77899998
0.031912278 0.06825161 -0.77899998
0.03338385 0.06825161 -0.77899998
0.034855425 0.06825161 -0.77899998
0.036326997 0.06825161 -0.77899998
0.037895616 0.06842684 -0.78100002
0.039270144 0.06825161 -0.77899998
0.040741719 0.06825161 -0.77899998
0.042321675 0.06842684 -0.78100002
0.043797024 0.06842684 -0.78100002
0.013306875 0.069555134 -0.81099999
0.014802305 0.069383606 -0.80900002
0.016330549 0.069383606 -0.80900002
0.017858796 0.069383606 -0.80900002
0.019434968 0.069555134 -0.81099999
0.024680492 0.067153722 -0.78299999
0.026092803 0.066982195 -0.78100002
0.027568154 0.066982195 -0.78100002
0.02896913 0.06681066 -0.77899998
0.030440703 0.06681066 -0.77899998
0.031912278 0.06681066 -0.77899998
0.03338385 0.06681066 -0.77899998
0.034855425 0.06681066 -0.77899998
0.036420267 0.066982195 -0.78100002
0.037895616 0.066982195 -0.78100002
0.039370969 0.066982195 -0.78100002
0.040846322 0.066982195 -0.78100002
0.042321675 0.066982195 -0.78100002
0.016330549 0.067887165 -0.80900002
0.017858796 0.067887165 -0.80900002
0.026092803 0.06553755 -0.78100002
0.027568154 0.06553755 -0.78100002
0.029043507 0.06553755 -0.78100002
0.030518858 0.06553755 -0.78100002
0.031994209 0.06553755 -0.78100002
0.033469561 0.06553755 -0.78100002
0.034944914 0.06553755 -0.78100002
0.036420267 0.06553755 -0.78100002
0.037895616 0.06553755 -0.78100002
0.039370969 0.06553755 -0.78100002
0.040846322 0.06553755 -0.78100002
0.042430051 0.065705374 -0.78299999
0.026293259 0.064585291 -0.787
0.027568154 0.064092904 -0.78100002
0.029043507 0.064092904 -0.78100002
0.030518858 0.064092904 -0.78100002
0.031994209 0.064092904 -0.78100002
0.033469561 0.064092904 -0.78100002
0.034944914 0.064092904 -0.78100002
0.036420267 0.064092904 -0.78100002
0.037895616 0.064092904 -0.78100002
0.03947179 0.064257033 -0.78299999
0.04095092 0.064257033 -0.78299999
0.042430051 0.064257033 -0.78299999
0.043909181 0.064257033 -0.78299999
0.026293259 0.063129544 -0.787
0.027709348 0.062969118 -0.78500003
0.02911788 0.062808685 -0.78299999
0.030597011 0.062808685 -0.78299999
0.032076139 0.062808685 -0.78299999
0.033555269 0.062808685 -0.78299999
0.035034399 0.062808685 -0.78299999
0.03651353 0.062808685 -0.78299999
0.03799266 0.062808685 -0.78299999
0.03947179 0.062808685 -0.78299999
0.04095092 0.062808685 -0.78299999
0.042430051 0.062808685 -0.78299999
0.044021338 0.062969118 -0.78500003
0.024838094 0.061752167 -0.78799999
0.026293259 0.061673801 -0.787
0.027779944 0.061673801 -0.787
0.029192258 0.061517071 -0.78500003
0.030675165 0.061517071 -0.78500003
0.032076139 0.061360337 -0.78299999
0.033555269 0.061360337 -0.78299999
0.035034399 0.061360337 -0.78299999
0.036606796 0.061517071 -0.78500003
0.038089704 0.061517071 -0.78500003
0.039572615 0.061517071 -0.78500003
0.041055523 0.061517071 -0.78500003
0.042538431 0.061517071 -0.78500003
0.024838094 0.060294569 -0.78799999
0.026293259 0.060218055 -0.787
0.027779944 0.060218055 -0.787
0.029266631 0.060218055 -0.787
0.030675165 0.060065024 -0.78500003
0.032158073 0.060065024 -0.78500003
0.033640981 0.060065024 -0.78500003
0.035123888 0.060065024 -0.78500003
0.036606796 0.060065024 -0.78500003
0.038186748 0.060218055 -0.787
0.039673433 0.060218055 -0.787
0.041160122 0.060218055 -0.787
0.042700995 0.060294569 -0.78799999
0.023468044 0.059135642 -0.792
0.024901135 0.05898631 -0.79000002
0.026326668 0.058836974 -0.78799999
0.027779944 0.058762308 -0.787
0.029266631 0.058762308 -0.787
0.030753318 0.058762308 -0.787
0.032240003 0.058762308 -0.787
0.033726688 0.058762308 -0.787
0.035213377 0.058762308 -0.787
0.036700062 0.058762308 -0.787
0.038186748 0.058762308 -0.787
0.039673433 0.058762308 -0.787
0.041212421 0.058836974 -0.78799999
0.022082882 0.057961911 -0.796
0.023468044 0.057670645 -0.792
0.024901135 0.057525016 -0.79000002
0.026326668 0.05737938 -0.78799999
0.027815243 0.05737938 -0.78799999
0.029303819 0.05737938 -0.78799999
0.030753318 0.057306565 -0.787
0.032240003 0.057306565 -0.787
0.033726688 0.057306565 -0.787
0.035213377 0.057306565 -0.787
0.036746696 0.05737938 -0.78799999
0.038235269 0.05737938 -0.78799999
0.039723843 0.05737938 -0.78799999
0.022082882 0.05648952 -0.796
0.023527307 0.056347586 -0.79400003
0.024901135 0.056063719 -0.79000002
0.026393488 0.056063719 -0.79000002
0.027815243 0.055921786 -0.78799999
0.029303819 0.055921786 -0.78799999
0.030792393 0.055921786 -0.78799999
0.032240003 0.055850819 -0.787
0.033726688 0.055850819 -0.787
0.035258118 0.055921786 -0.78799999
0.036746696 0.055921786 -0.78799999
0.038235269 0.055921786 -0.78799999
0.040026311 0.056347586 -0.79400003
0.023527307 0.054878894 -0.79400003
0.024901135 0.054602426 -0.79000002
0.026393488 0.054602426 -0.79000002
0.027885841 0.054602426 -0.79000002
0.029378194 0.054602426 -0.79000002
0.030792393 0.054464187 -0.78799999
0.03228097 0.054464187 -0.78799999
0.033769544 0.054464187 -0.78799999
0.035258118 0.054464187 -0.78799999
0.036746696 0.054464187 -0.78799999
0.038332313 0.054602426 -0.79000002
0.040026311 0.054878894 -0.79400003
0.026393488 0.053141132 -0.79000002
0.027885841 0.053141132 -0.79000002
0.029378194 0.053141132 -0.79000002
0.030870548 0.053141132 -0.79000002
0.032362901 0.053141132 -0.79000002
0.033769544 0.053006593 -0.78799999
0.035258118 0.053006593 -0.78799999
0.036933225 0.053275663 -0.792
0.032362901 0.051679835 -0.79000002
0.033855256 0.051679835 -0.79000002
0.035347607 0.051679835 -0.79000002
