# .PCD v0.7 - Point Cloud Data file format
VERSION 0.7
FIELDS x y z
SIZE 4 4 4
TYPE F F F
COUNT 1 1 1
WIDTH 1391
HEIGHT 1
VIEWPOINT 0 0 0 1 0 0 0
POINTS 1391
DATA ascii
0.04716672 0.12297116 -0.78799999
0.048655294 0.12297116 -0.78799999
0.050271142 0.12328328 -0.79000002
0.051763494 0.12328328 -0.79000002
0.0535255 0.1239075 -0.79400003
0.055164009 0.1242196 -0.796
0.056667697 0.1242196 -0.796
0.058317542 0.12453171 -0.79799998
0.059825007 0.12453171 -0.79799998
0.061332475 0.12453171 -0.79799998
0.062997438 0.12484383 -0.80000001
0.064750582 0.12531199 -0.80299997
0.023142099 0.12043414 -0.78100002
0.02461745 0.12043414 -0.78100002
0.026092803 0.12043414 -0.78100002
0.027568154 0.12043414 -0.78100002
0.029043507 0.12043414 -0.78100002
0.030518858 0.12043414 -0.78100002
0.031912278 0.12012573 -0.77899998
0.03338385 0.12012573 -0.77899998
0.034855425 0.12012573 -0.77899998
0.036420267 0.12043414 -0.78100002
0.037895616 0.12043414 -0.78100002
0.03947179 0.12074254 -0.78299999
0.04095092 0.12074254 -0.78299999
0.042538431 0.12105096 -0.78500003
0.044133492 0.12135936 -0.787
0.045620177 0.12135936 -0.787
0.04716672 0.12151357 -0.78799999
0.048655294 0.12151357 -0.78799999
0.050271142 0.12182198 -0.79000002
0.051763494 0.12182198 -0.79000002
0.0535255 0.1224388 -0.79400003
0.055164009 0.12274721 -0.796
0.056810077 0.12305561 -0.79799998
0.058317542 0.12305561 -0.79799998
0.059825007 0.12305561 -0.79799998
0.061486192 0.12336403 -0.80000001
0.063076183 0.12351824 -0.801
0.064750582 0.12382665 -0.80299997
0.066267498 0.12382665 -0.80299997
0.023142099 0.11898949 -0.78100002
0.02461745 0.11898949 -0.78100002
0.026092803 0.11898949 -0.78100002
0.027568154 0.11898949 -0.78100002
0.029043507 0.11898949 -0.78100002
0.030440703 0.11868478 -0.77899998
0.031912278 0.11868478 -0.77899998
0.03338385 0.11868478 -0.77899998
0.034855425 0.11868478 -0.77899998
0.036420267 0.11898949 -0.78100002
0.037895616 0.11898949 -0.78100002
0.03947179 0.1192942 -0.78299999
0.04095092 0.1192942 -0.78299999
0.042538431 0.11959891 -0.78500003
0.044133492 0.11990362 -0.787
0.045620177 0.11990362 -0.787
0.04716672 0.12005597 -0.78799999
0.048778787 0.12036069 -0.79000002
0.050271142 0.12036069 -0.79000002
0.05202559 0.12097012 -0.79400003
0.053660322 0.12127482 -0.796
0.055302612 0.12157953 -0.79799998
0.056810077 0.12157953 -0.79799998
0.058463704 0.12188424 -0.80000001
0.059974946 0.12188424 -0.80000001
0.061563049 0.12203659 -0.801
0.063233674 0.1223413 -0.80299997
0.064750582 0.1223413 -0.80299997
0.066267498 0.1223413 -0.80299997
0.067953236 0.12264602 -0.80500001
0.02461745 0.11754484 -0.78100002
0.026092803 0.11754484 -0.78100002
0.027497556 0.11724383 -0.77899998
0.02896913 0.11724383 -0.77899998
0.030440703 0.11724383 -0.77899998
0.031912278 0.11724383 -0.77899998
0.03338385 0.11724383 -0.77899998
0.034855425 0.11724383 -0.77899998
0.036420267 0.11754484 -0.78100002
0.037895616 0.11754484 -0.78100002
0.03947179 0.11784585 -0.78299999
0.04095092 0.11784585 -0.78299999
0.042538431 0.11814687 -0.78500003
0.044133492 0.11844788 -0.787
0.045678146 0.11859838 -0.78799999
0.047286436 0.1188994 -0.79000002
0.048778787 0.1188994 -0.79000002
0.050398409 0.1192004 -0.792
0.052156635 0.11980242 -0.796
0.053795144 0.12010343 -0.79799998
0.055302612 0.12010343 -0.79799998
0.056952462 0.12040445 -0.80000001
0.058536783 0.12055495 -0.801
0.060049914 0.12055495 -0.801
0.061716761 0.12085596 -0.80299997
0.063233674 0.12085596 -0.80299997
0.064911857 0.12115698 -0.80500001
0.066432551 0.12115698 -0.80500001
0.067953236 0.12115698 -0.80500001
0.06964653 0.12145799 -0.80699998
0.02461745 0.1161002 -0.78100002
0.026025983 0.11580288 -0.77899998
0.027497556 0.11580288 -0.77899998
0.02896913 0.11580288 -0.77899998
0.030440703 0.11580288 -0.77899998
0.031912278 0.11580288 -0.77899998
0.03338385 0.11580288 -0.77899998
0.034855425 0.11580288 -0.77899998
0.036420267 0.1161002 -0.78100002
0.037895616 0.1161002 -0.78100002
0.03947179 0.11639751 -0.78299999
0.041055523 0.11669482 -0.78500003
0.042646807 0.11699213 -0.787
0.044189569 0.11714078 -0.78799999
0.045678146 0.11714078 -0.78799999
0.047286436 0.1174381 -0.79000002
0.048902277 0.11773541 -0.792
0.05052568 0.11803272 -0.79400003
0.052156635 0.11833003 -0.796
0.053795144 0.11862734 -0.79799998
0.055441216 0.11892466 -0.80000001
0.057023648 0.11907331 -0.801
0.058536783 0.11907331 -0.801
0.060199849 0.11937062 -0.80299997
0.061716761 0.11937062 -0.80299997
0.063391171 0.11966793 -0.80500001
0.064911857 0.11966793 -0.80500001
0.066597596 0.11996524 -0.80699998
0.068122059 0.11996524 -0.80699998
0.06964653 0.11996524 -0.80699998
0.018859828 0.11553638 -0.787
0.020346515 0.11553638 -0.787
0.021722231 0.11494916 -0.78299999
0.023201361 0.11494916 -0.78299999
0.02461745 0.11465555 -0.78100002
0.026092803 0.11465555 -0.78100002
0.027497556 0.11436193 -0.77899998
0.02896913 0.11436193 -0.77899998
0.030440703 0.11436193 -0.77899998
0.031912278 0.11436193 -0.77899998
0.03338385 0.11436193 -0.77899998
0.034855425 0.11436193 -0.77899998
0.036420267 0.11465555 -0.78100002
0.037895616 0.11465555 -0.78100002
0.03947179 0.11494916 -0.78299999
0.041055523 0.11524277 -0.78500003
0.042700995 0.11568319 -0.78799999
0.044189569 0.11568319 -0.78799999
0.045794081 0.1159768 -0.79000002
0.047406144 0.11627042 -0.792
0.04902577 0.11656403 -0.79400003
0.050652947 0.11685764 -0.796
0.052287679 0.11715125 -0.79799998
0.053929973 0.11744487 -0.80000001
0.055510517 0.11759167 -0.801
0.057023648 0.11759167 -0.801
0.058682941 0.11788528 -0.80299997
0.060199849 0.11788528 -0.80299997
0.061870478 0.1181789 -0.80500001
0.063391171 0.1181789 -0.80500001
0.065073125 0.1184725 -0.80699998
0.066597596 0.1184725 -0.80699998
0.068122059 0.1184725 -0.80699998
0.017395217 0.1142256 -0.78799999
0.018859828 0.11408064 -0.787
0.020294808 0.11379073 -0.78500003
0.021722231 0.11350081 -0.78299999
0.023201361 0.11350081 -0.78299999
0.02461745 0.1132109 -0.78100002
0.026092803 0.1132109 -0.78100002
0.027497556 0.11292098 -0.77899998
0.02896913 0.11292098 -0.77899998
0.030440703 0.11292098 -0.77899998
0.031912278 0.11292098 -0.77899998
0.03338385 0.11292098 -0.77899998
0.034855425 0.11292098 -0.77899998
0.036420267 0.1132109 -0.78100002
0.03799266 0.11350081 -0.78299999
0.039572615 0.11379073 -0.78500003
0.041160122 0.11408064 -0.787
0.042700995 0.1142256 -0.78799999
0.044189569 0.1142256 -0.78799999
0.045794081 0.11451551 -0.79000002
0.04752586 0.11509534 -0.79400003
0.04914926 0.11538525 -0.796
0.050652947 0.11538525 -0.796
0.052287679 0.11567515 -0.79799998
0.053929973 0.11596508 -0.80000001
0.055510517 0.11611003 -0.801
0.057166029 0.11639994 -0.80299997
0.058682941 0.11639994 -0.80299997
0.060349792 0.11668985 -0.80500001
0.061870478 0.11668985 -0.80500001
0.063548662 0.11697976 -0.80699998
0.065073125 0.11697976 -0.80699998
0.066762649 0.11726968 -0.80900002
0.068290897 0.11726968 -0.80900002
0.015906641 0.11276799 -0.78799999
0.017395217 0.11276799 -0.78799999
0.018859828 0.11262489 -0.787
0.020294808 0.11233868 -0.78500003
0.021777717 0.11233868 -0.78500003
0.023201361 0.11205246 -0.78299999
0.02461745 0.11176626 -0.78100002
0.026092803 0.11176626 -0.78100002
0.027568154 0.11176626 -0.78100002
0.029043507 0.11176626 -0.78100002
0.030440703 0.11148003 -0.77899998
0.031912278 0.11148003 -0.77899998
0.03338385 0.11148003 -0.77899998
0.034855425 0.11148003 -0.77899998
0.036420267 0.11176626 -0.78100002
0.03799266 0.11205246 -0.78299999
0.039572615 0.11233868 -0.78500003
0.041212421 0.11276799 -0.78799999
0.042700995 0.11276799 -0.78799999
0.04430173 0.11305422 -0.79000002
0.045910016 0.11334042 -0.792
0.04752586 0.11362664 -0.79400003
0.04914926 0.11391285 -0.796
0.050780214 0.11419906 -0.79799998
0.052418727 0.11448528 -0.80000001
0.053997383 0.11462838 -0.801
0.055649117 0.1149146 -0.80299997
0.057166029 0.1149146 -0.80299997
0.058829103 0.11520081 -0.80500001
0.060349792 0.11520081 -0.80500001
0.061870478 0.11520081 -0.80500001
0.063548662 0.11548702 -0.80699998
0.0652344 0.11577324 -0.80900002
0.066762649 0.11577324 -0.80900002
0.068459719 0.11605945 -0.81099999
0.015906641 0.1113104 -0.78799999
0.017395217 0.1113104 -0.78799999
0.018883793 0.1113104 -0.78799999
0.020346515 0.11116914 -0.787
0.021777717 0.11088664 -0.78500003
0.023201361 0.11060412 -0.78299999
0.024680492 0.11060412 -0.78299999
0.026092803 0.11032161 -0.78100002
0.027568154 0.11032161 -0.78100002
0.029043507 0.11032161 -0.78100002
0.030518858 0.11032161 -0.78100002
0.031912278 0.11003909 -0.77899998
0.03338385 0.11003909 -0.77899998
0.034944914 0.11032161 -0.78100002
0.03651353 0.11060412 -0.78299999
0.038089704 0.11088664 -0.78500003
0.039673433 0.11116914 -0.787
0.041212421 0.1113104 -0.78799999
0.042809375 0.11159292 -0.79000002
0.04430173 0.11159292 -0.79000002
0.04602595 0.11215795 -0.79400003
0.047645573 0.11244046 -0.796
0.04914926 0.11244046 -0.796
0.050780214 0.11272297 -0.79799998
0.052418727 0.11300549 -0.80000001
0.054132208 0.11342926 -0.80299997
0.055649117 0.11342926 -0.80299997
0.057308413 0.11371177 -0.80500001
0.058829103 0.11371177 -0.80500001
0.060349792 0.11371177 -0.80500001
0.062024195 0.11399428 -0.80699998
0.06370616 0.1142768 -0.80900002
0.065395676 0.11455931 -0.81099999
0.066927694 0.11455931 -0.81099999
0.06862855 0.11484183 -0.81300002
0.015906641 0.10985281 -0.78799999
0.017395217 0.10985281 -0.78799999
0.018883793 0.10985281 -0.78799999
0.020346515 0.10971341 -0.787
0.021777717 0.10943459 -0.78500003
0.023201361 0.10915577 -0.78299999
0.024680492 0.10915577 -0.78299999
0.026092803 0.10887696 -0.78100002
0.027568154 0.10887696 -0.78100002
0.029043507 0.10887696 -0.78100002
0.030518858 0.10887696 -0.78100002
0.031994209 0.10887696 -0.78100002
0.033469561 0.10887696 -0.78100002
0.034944914 0.10887696 -0.78100002
0.036606796 0.10943459 -0.78500003
0.038186748 0.10971341 -0.787
0.039723843 0.10985281 -0.78799999
0.041212421 0.10985281 -0.78799999
0.042809375 0.11013163 -0.79000002
0.044413883 0.11041044 -0.792
0.04602595 0.11068925 -0.79400003
0.047645573 0.11096807 -0.796
0.04927275 0.11124688 -0.79799998
0.050780214 0.11124688 -0.79799998
0.052484252 0.1116651 -0.801
0.054132208 0.11194392 -0.80299997
0.055787724 0.11222273 -0.80500001
0.057308413 0.11222273 -0.80500001
0.058829103 0.11222273 -0.80500001
0.060499728 0.11250154 -0.80699998
0.062177911 0.11278036 -0.80900002
0.06386365 0.11305917 -0.81099999
0.065395676 0.11305917 -0.81099999
0.067092746 0.11333799 -0.81300002
0.068797372 0.1136168 -0.815
0.070854768 0.11445324 -0.82099998
0.014491255 0.10894544 -0.792
0.015906641 0.10839521 -0.78799999
0.017395217 0.10839521 -0.78799999
0.018883793 0.10839521 -0.78799999
0.020346515 0.10825766 -0.787
0.021777717 0.10798255 -0.78500003
0.023201361 0.10770743 -0.78299999
0.024680492 0.10770743 -0.78299999
0.02615962 0.10770743 -0.78299999
0.027568154 0.10743231 -0.78100002
0.029043507 0.10743231 -0.78100002
0.030518858 0.10743231 -0.78100002
0.031994209 0.10743231 -0.78100002
0.033469561 0.10743231 -0.78100002
0.035034399 0.10770743 -0.78299999
0.036606796 0.10798255 -0.78500003
0.038186748 0.10825766 -0.787
0.039723843 0.10839521 -0.78799999
0.041317023 0.10867033 -0.79000002
0.042917751 0.10894544 -0.792
0.044526041 0.10922056 -0.79400003
0.046141885 0.10949567 -0.796
0.047645573 0.10949567 -0.796
0.04927275 0.10977078 -0.79799998
0.050907485 0.1100459 -0.80000001
0.052615296 0.11045857 -0.80299997
0.054132208 0.11045857 -0.80299997
0.055787724 0.11073369 -0.80500001
0.057308413 0.11073369 -0.80500001
0.058975261 0.1110088 -0.80699998
0.060649667 0.11128392 -0.80900002
0.062331624 0.11155903 -0.81099999
0.06386365 0.11155903 -0.81099999
0.065556943 0.11183415 -0.81300002
0.067257799 0.11210926 -0.815
0.069135033 0.11265949 -0.81900001
0.070854768 0.1129346 -0.82099998
0.072934844 0.11375996 -0.82700002
0.074497089 0.11375996 -0.82700002
0.01302794 0.10775187 -0.79400003
0.014454661 0.10720903 -0.79000002
0.015906641 0.10693762 -0.78799999
0.017395217 0.10693762 -0.78799999
0.018883793 0.10693762 -0.78799999
0.020346515 0.10680191 -0.787
0.021777717 0.1065305 -0.78500003
0.023201361 0.10625908 -0.78299999
0.024680492 0.10625908 -0.78299999
0.02615962 0.10625908 -0.78299999
0.027568154 0.10598767 -0.78100002
0.029043507 0.10598767 -0.78100002
0.030518858 0.10598767 -0.78100002
0.032076139 0.10625908 -0.78299999
0.033555269 0.10625908 -0.78299999
0.035034399 0.10625908 -0.78299999
0.036700062 0.10680191 -0.787
0.038235269 0.10693762 -0.78799999
0.039824668 0.10720903 -0.79000002
0.041317023 0.10720903 -0.79000002
0.043026131 0.10775187 -0.79400003
0.044638198 0.10802328 -0.796
0.046141885 0.10802328 -0.796
0.047765281 0.10829469 -0.79799998
0.04927275 0.10829469 -0.79799998
0.050971117 0.10870182 -0.801
0.052615296 0.10897323 -0.80299997
0.054267034 0.10924465 -0.80500001
0.055787724 0.10924465 -0.80500001
0.057450794 0.10951606 -0.80699998
0.059121422 0.10978748 -0.80900002
0.060649667 0.10978748 -0.80900002
0.062331624 0.1100589 -0.81099999
0.064021148 0.11033031 -0.81300002
0.065718219 0.11060172 -0.815
0.067587897 0.11114456 -0.81900001
0.069303855 0.11141597 -0.82099998
0.071199983 0.1119588 -0.82499999
0.072934844 0.11223022 -0.82700002
0.074497089 0.11223022 -0.82700002
0.076059341 0.11223022 -0.82700002
0.077809304 0.11250163 -0.829
0.01152803 0.10628317 -0.79400003
0.012995124 0.10601545 -0.792
0.014454661 0.10574774 -0.79000002
0.015906641 0.10548002 -0.78799999
0.017395217 0.10548002 -0.78799999
0.018883793 0.10548002 -0.78799999
0.020346515 0.10534617 -0.787
0.021777717 0.10507845 -0.78500003
0.023260625 0.10507845 -0.78500003
0.024680492 0.10481073 -0.78299999
0.02615962 0.10481073 -0.78299999
0.02763875 0.10481073 -0.78299999
0.02911788 0.10481073 -0.78299999
0.030597011 0.10481073 -0.78299999
0.032076139 0.10481073 -0.78299999
0.033555269 0.10481073 -0.78299999
0.035213377 0.10534617 -0.787
0.036746696 0.10548002 -0.78799999
0.038332313 0.10574774 -0.79000002
0.039824668 0.10574774 -0.79000002
0.041421622 0.10601545 -0.792
0.043026131 0.10628317 -0.79400003
0.044638198 0.10655089 -0.796
0.046257816 0.1068186 -0.79799998
0.047765281 0.1068186 -0.79799998
0.049396239 0.10708632 -0.80000001
0.050971117 0.10722017 -0.801
0.052615296 0.10748789 -0.80299997
0.054267034 0.10775561 -0.80500001
0.055926323 0.10802332 -0.80699998
0.057593174 0.10829104 -0.80900002
0.059121422 0.10829104 -0.80900002
0.060799602 0.10855875 -0.81099999
0.062485345 0.10882647 -0.81300002
0.064021148 0.10882647 -0.81300002
0.065879487 0.1093619 -0.81699997
0.067587897 0.10962962 -0.81900001
0.069303855 0.10989733 -0.82099998
0.071199983 0.11043277 -0.82499999
0.072934844 0.11070048 -0.82700002
0.074497089 0.11070048 -0.82700002
0.076243274 0.11096819 -0.829
0.077809304 0.11096819 -0.829
0.079375327 0.11096819 -0.829
0.01152803 0.10481448 -0.79400003
0.012962308 0.10428645 -0.79000002
0.014454661 0.10428645 -0.79000002
0.015906641 0.10402243 -0.78799999
0.017395217 0.10402243 -0.78799999
0.018883793 0.10402243 -0.78799999
0.020346515 0.10389042 -0.787
0.0218332 0.10389042 -0.787
0.023260625 0.10362641 -0.78500003
0.024680492 0.10336239 -0.78299999
0.02615962 0.10336239 -0.78299999
0.02763875 0.10336239 -0.78299999
0.02911788 0.10336239 -0.78299999
0.030597011 0.10336239 -0.78299999
0.032076139 0.10336239 -0.78299999
0.033640981 0.10362641 -0.78500003
0.035213377 0.10389042 -0.787
0.036746696 0.10402243 -0.78799999
0.038332313 0.10428645 -0.79000002
0.039824668 0.10428645 -0.79000002
0.041526221 0.10481448 -0.79400003
0.043134507 0.1050785 -0.796
0.044638198 0.1050785 -0.796
0.046257816 0.10534251 -0.79799998
0.047765281 0.10534251 -0.79799998
0.049396239 0.10560653 -0.80000001
0.051098384 0.10600255 -0.80299997
0.052746344 0.10626657 -0.80500001
0.054267034 0.10626657 -0.80500001
0.055926323 0.10653058 -0.80699998
0.057593174 0.1067946 -0.80900002
0.059267577 0.10705861 -0.81099999
0.060799602 0.10705861 -0.81099999
0.062485345 0.10732263 -0.81300002
0.064178638 0.10758664 -0.815
0.066040762 0.10811468 -0.81900001
0.067752942 0.10837869 -0.82099998
0.069472685 0.10864271 -0.82300001
0.071199983 0.10890673 -0.82499999
0.072934844 0.10917075 -0.82700002
0.074497089 0.10917075 -0.82700002
0.076243274 0.10943476 -0.829
0.077809304 0.10943476 -0.829
0.079375327 0.10943476 -0.829
0.01005338 0.1036061 -0.796
0.01152803 0.10334579 -0.79400003
0.012962308 0.10282515 -0.79000002
0.014454661 0.10282515 -0.79000002
0.015906641 0.10256483 -0.78799999
0.017395217 0.10256483 -0.78799999
0.018883793 0.10256483 -0.78799999
0.020346515 0.10243467 -0.787
0.0218332 0.10243467 -0.787
0.023260625 0.10217436 -0.78500003
0.024680492 0.10191404 -0.78299999
0.02615962 0.10191404 -0.78299999
0.02763875 0.10191404 -0.78299999
0.02911788 0.10191404 -0.78299999
0.030675165 0.10217436 -0.78500003
0.032158073 0.10217436 -0.78500003
0.033726688 0.10243467 -0.787
0.035258118 0.10256483 -0.78799999
0.036839962 0.10282515 -0.79000002
0.038332313 0.10282515 -0.79000002
0.03992549 0.10308547 -0.792
0.041526221 0.10334579 -0.79400003
0.043134507 0.1036061 -0.796
0.044750351 0.10386641 -0.79799998
0.046257816 0.10386641 -0.79799998
0.047884997 0.10412674 -0.80000001
0.049457986 0.10425689 -0.801
0.051098384 0.10451721 -0.80299997
0.052746344 0.10477753 -0.80500001
0.054401856 0.10503784 -0.80699998
0.05606493 0.10529816 -0.80900002
0.057735555 0.10555848 -0.81099999
0.059267577 0.10555848 -0.81099999
0.060949542 0.10581879 -0.81300002
0.062639058 0.10607911 -0.815
0.064336129 0.10633942 -0.81699997
0.066040762 0.10659974 -0.81900001
0.067752942 0.10686006 -0.82099998
0.069641516 0.1073807 -0.82499999
0.071372591 0.10764101 -0.82700002
0.072934844 0.10764101 -0.82700002
0.074677251 0.10790133 -0.829
0.076243274 0.10790133 -0.829
0.077809304 0.10790133 -0.829
0.079566821 0.10816164 -0.83099997
0.01005338 0.10213371 -0.796
0.01152803 0.10187709 -0.79400003
0.012962308 0.10136386 -0.79000002
0.014454661 0.10136386 -0.79000002
0.015906641 0.10110723 -0.78799999
0.017395217 0.10110723 -0.78799999
0.018883793 0.10110723 -0.78799999
0.020346515 0.10097893 -0.787
0.021777717 0.10072231 -0.78500003
0.023260625 0.10072231 -0.78500003
0.024680492 0.10046569 -0.78299999
0.02615962 0.10046569 -0.78299999
0.02763875 0.10046569 -0.78299999
0.029192258 0.10072231 -0.78500003
0.030675165 0.10072231 -0.78500003
0.032240003 0.10097893 -0.787
0.033769544 0.10110723 -0.78799999
0.035258118 0.10110723 -0.78799999
0.036839962 0.10136386 -0.79000002
0.038429357 0.10162047 -0.792
0.040026311 0.10187709 -0.79400003
0.041630819 0.10213371 -0.796
0.043134507 0.10213371 -0.796
0.044750351 0.10239032 -0.79799998
0.046373755 0.10264694 -0.80000001
0.047944851 0.10277525 -0.801
0.049581476 0.10303187 -0.80299997
0.051098384 0.10303187 -0.80299997
0.052877389 0.1035451 -0.80699998
0.054536685 0.10380172 -0.80900002
0.056203533 0.10405833 -0.81099999
0.057735555 0.10405833 -0.81099999
0.059413739 0.10431496 -0.81300002
0.061099477 0.10457157 -0.815
0.062792771 0.10482819 -0.81699997
0.064493626 0.10508481 -0.81900001
0.06620203 0.10534142 -0.82099998
0.067917995 0.10559804 -0.82300001
0.069810346 0.10611128 -0.82700002
0.071372591 0.10611128 -0.82700002
0.073111221 0.10636789 -0.829
0.074677251 0.10636789 -0.829
0.076243274 0.10636789 -0.829
0.077997021 0.10662451 -0.83099997
0.079758324 0.10688113 -0.833
0.01005338 0.10066132 -0.796
0.01152803 0.1004084 -0.79400003
0.012962308 0.099902563 -0.79000002
0.014454661 0.099902563 -0.79000002
0.015906641 0.099649638 -0.78799999
0.017395217 0.099649638 -0.78799999
0.018859828 0.099523187 -0.787
0.020294808 0.099270269 -0.78500003
0.021777717 0.099270269 -0.78500003
0.023201361 0.099017344 -0.78299999
0.024680492 0.099017344 -0.78299999
0.02615962 0.099017344 -0.78299999
0.02763875 0.099017344 -0.78299999
0.029192258 0.099270269 -0.78500003
0.030675165 0.099270269 -0.78500003
0.032240003 0.099523187 -0.787
0.033769544 0.099649638 -0.78799999
0.035347607 0.099902563 -0.79000002
0.036839962 0.099902563 -0.79000002
0.038526405 0.1004084 -0.79400003
0.040026311 0.1004084 -0.79400003
0.041630819 0.10066132 -0.796
0.043242887 0.10091423 -0.79799998
0.044750351 0.10091423 -0.79799998
0.046373755 0.10116715 -0.80000001
0.047944851 0.10129361 -0.801
0.049581476 0.10154653 -0.80299997
0.051225655 0.10179944 -0.80500001
0.053008441 0.10230528 -0.80900002
0.054671507 0.1025582 -0.81099999
0.056203533 0.1025582 -0.81099999
0.057877939 0.10281112 -0.81300002
0.059413739 0.10281112 -0.81300002
0.061249413 0.10331695 -0.81699997
0.062946491 0.10356987 -0.81900001
0.064493626 0.10356987 -0.81900001
0.06620203 0.10382278 -0.82099998
0.06808304 0.10432862 -0.82499999
0.069810346 0.10458154 -0.82700002
0.071545199 0.10483446 -0.829
0.073287606 0.10508737 -0.83099997
0.074857406 0.10508737 -0.83099997
0.076427214 0.10508737 -0.83099997
0.078184739 0.10534029 -0.833
0.079758324 0.10534029 -0.833
0.01005338 0.099188924 -0.796
0.01152803 0.098939709 -0.79400003
0.012995124 0.09869048 -0.792
0.014454661 0.098441266 -0.79000002
0.015906641 0.098192044 -0.78799999
0.017395217 0.098192044 -0.78799999
0.018859828 0.09806744 -0.787
0.020294808 0.097818226 -0.78500003
0.021722231 0.097569004 -0.78299999
0.023201361 0.097569004 -0.78299999
0.024680492 0.097569004 -0.78299999
0.02615962 0.097569004 -0.78299999
0.027709348 0.097818226 -0.78500003
0.029192258 0.097818226 -0.78500003
0.030753318 0.09806744 -0.787
0.03228097 0.098192044 -0.78799999
0.033855256 0.098441266 -0.79000002
0.035347607 0.098441266 -0.79000002
0.037026495 0.098939709 -0.79400003
0.038526405 0.098939709 -0.79400003
0.040127132 0.099188924 -0.796
0.041735418 0.099438138 -0.79799998
0.043242887 0.099438138 -0.79799998
0.044862509 0.09968736 -0.80000001
0.04643172 0.099811964 -0.801
0.047944851 0.099811964 -0.801
0.049581476 0.10006118 -0.80299997
0.051352922 0.10055962 -0.80699998
0.053008441 0.10080884 -0.80900002
0.054671507 0.10105806 -0.81099999
0.056342136 0.10130728 -0.81300002
0.057877939 0.10130728 -0.81300002
0.059706055 0.10180571 -0.81699997
0.061249413 0.10180571 -0.81699997
0.062946491 0.10205493 -0.81900001
0.064651117 0.10230415 -0.82099998
0.066363305 0.10255337 -0.82300001
0.068248093 0.10305181 -0.82700002
0.069979168 0.10330103 -0.829
0.071717799 0.10355024 -0.83099997
0.073463991 0.10379946 -0.833
0.075037576 0.10379946 -0.833
0.076611161 0.10379946 -0.833
0.078184739 0.10379946 -0.833
0.079949819 0.10404868 -0.83499998
0.008549693 0.097716525 -0.796
0.01005338 0.097716525 -0.796
0.01152803 0.097471014 -0.79400003
0.012995124 0.097225487 -0.792
0.014454661 0.096979976 -0.79000002
0.015906641 0.096734449 -0.78799999
0.017395217 0.096734449 -0.78799999
0.018859828 0.096611694 -0.787
0.020243101 0.096120656 -0.78299999
0.021722231 0.096120656 -0.78299999
0.023201361 0.096120656 -0.78299999
0.024680492 0.096120656 -0.78299999
0.02615962 0.096120656 -0.78299999
0.027709348 0.096366175 -0.78500003
0.029192258 0.096366175 -0.78500003
0.030792393 0.096734449 -0.78799999
0.03228097 0.096734449 -0.78799999
0.033855256 0.096979976 -0.79000002
0.035526585 0.097471014 -0.79400003
0.037026495 0.097471014 -0.79400003
0.038623445 0.097716525 -0.796
0.040127132 0.097716525 -0.796
0.041735418 0.097962044 -0.79799998
0.043351267 0.098207563 -0.80000001
0.044862509 0.098207563 -0.80000001
0.04643172 0.098330326 -0.801
0.048064563 0.098575838 -0.80299997
0.049704965 0.098821364 -0.80500001
0.051352922 0.099066876 -0.80699998
0.053139485 0.099557921 -0.81099999
0.054671507 0.099557921 -0.81099999
0.056342136 0.09980344 -0.81300002
0.058020316 0.10004896 -0.815
0.059706055 0.10029447 -0.81699997
0.061399352 0.10054 -0.81900001
0.062946491 0.10054 -0.81900001
0.064651117 0.10078551 -0.82099998
0.066524573 0.10127655 -0.82499999
0.068248093 0.10152207 -0.82700002
0.069979168 0.10176759 -0.829
0.071890406 0.10225863 -0.833
0.073640376 0.10250414 -0.83499998
0.075217731 0.10250414 -0.83499998
0.076795094 0.10250414 -0.83499998
0.078372456 0.10250414 -0.83499998
0.080141313 0.10274967 -0.83700001
0.008549693 0.096244134 -0.796
0.01005338 0.096244134 -0.796
0.01152803 0.096002318 -0.79400003
0.012995124 0.095760494 -0.792
0.014454661 0.095518678 -0.79000002
0.015906641 0.095276855 -0.78799999
0.017373143 0.095155947 -0.787
0.0188119 0.094914131 -0.78500003
0.020243101 0.094672307 -0.78299999
0.021722231 0.094672307 -0.78299999
0.023201361 0.094672307 -0.78299999
0.024680492 0.094672307 -0.78299999
0.02622644 0.094914131 -0.78500003
0.027709348 0.094914131 -0.78500003
0.029266631 0.095155947 -0.787
0.030792393 0.095276855 -0.78799999
0.032362901 0.095518678 -0.79000002
0.033940963 0.095760494 -0.792
0.035526585 0.096002318 -0.79400003
0.037119757 0.096244134 -0.796
0.038623445 0.096244134 -0.796
0.040227953 0.09648595 -0.79799998
0.041735418 0.09648595 -0.79799998
0.043351267 0.096727774 -0.80000001
0.044918586 0.096848682 -0.801
0.046547651 0.097090498 -0.80299997
0.048064563 0.097090498 -0.80299997
0.049828455 0.097574137 -0.80699998
0.051480193 0.097815961 -0.80900002
0.053139485 0.098057777 -0.81099999
0.054806337 0.0982996 -0.81300002
0.056480739 0.098541416 -0.815
0.058162697 0.098783232 -0.81699997
0.059852216 0.099025056 -0.81900001
0.061399352 0.099025056 -0.81900001
0.063100204 0.099266872 -0.82099998
0.064808615 0.099508695 -0.82300001
0.066685848 0.099992335 -0.82700002
0.068413146 0.10023415 -0.829
0.070316829 0.1007178 -0.833
0.072063014 0.10095961 -0.83499998
0.073816761 0.10120144 -0.83700001
0.075397901 0.10120144 -0.83700001
0.076979041 0.10120144 -0.83700001
0.078560181 0.10120144 -0.83700001
0.080332808 0.10144325 -0.83899999
0.0070460052 0.094771743 -0.796
0.008549693 0.094771743 -0.796
0.010028121 0.094533622 -0.79400003
0.01152803 0.094533622 -0.79400003
0.012995124 0.094295502 -0.792
0.014454661 0.094057381 -0.79000002
0.015906641 0.093819261 -0.78799999
0.017373143 0.0937002 -0.787
0.0188119 0.093462087 -0.78500003
0.020294808 0.093462087 -0.78500003
0.021777717 0.093462087 -0.78500003
0.023260625 0.093462087 -0.78500003
0.024743533 0.093462087 -0.78500003
0.02622644 0.093462087 -0.78500003
0.027779944 0.0937002 -0.787
0.029266631 0.0937002 -0.787
0.030792393 0.093819261 -0.78799999
0.032362901 0.094057381 -0.79000002
0.033940963 0.094295502 -0.792
0.03561607 0.094771743 -0.796
0.037119757 0.094771743 -0.796
0.038720489 0.095009856 -0.79799998
0.040227953 0.095009856 -0.79799998
0.041840021 0.095247984 -0.80000001
0.043405455 0.095367044 -0.801
0.045030743 0.095605157 -0.80299997
0.046547651 0.095605157 -0.80299997
0.048184279 0.095843285 -0.80500001
0.049951948 0.096319519 -0.80900002
0.05160746 0.09655764 -0.81099999
0.053270534 0.09679576 -0.81300002
0.054941159 0.097033881 -0.815
0.056619339 0.097271994 -0.81699997
0.058305081 0.097510122 -0.81900001
0.059852216 0.097510122 -0.81900001
0.061549287 0.097748235 -0.82099998
0.063100204 0.097748235 -0.82099998
0.064966105 0.098224476 -0.82499999
0.066685848 0.098462604 -0.82700002
0.068578191 0.098938838 -0.83099997
0.070485651 0.099415079 -0.83499998
0.072235622 0.099653199 -0.83700001
0.073816761 0.099653199 -0.83700001
0.075397901 0.099653199 -0.83700001
0.076979041 0.099653199 -0.83700001
0.078747891 0.09989132 -0.83899999
0.080332808 0.09989132 -0.83899999
0.082308277 0.10036756 -0.84299999
0.0070283017 0.093064934 -0.79400003
0.0085282112 0.093064934 -0.79400003
0.010028121 0.093064934 -0.79400003
0.01152803 0.093064934 -0.79400003
0.012995124 0.092830509 -0.792
0.014454661 0.092596091 -0.79000002
0.015906641 0.092361666 -0.78799999
0.017373143 0.092244454 -0.787
0.0188119 0.092010036 -0.78500003
0.020294808 0.092010036 -0.78500003
0.021777717 0.092010036 -0.78500003
0.023260625 0.092010036 -0.78500003
0.024743533 0.092010036 -0.78500003
0.026293259 0.092244454 -0.787
0.027779944 0.092244454 -0.787
0.029303819 0.092361666 -0.78799999
0.030792393 0.092361666 -0.78799999
0.032362901 0.092596091 -0.79000002
0.034026675 0.093064934 -0.79400003
0.03561607 0.093299352 -0.796
0.037119757 0.093299352 -0.796
0.038720489 0.093533769 -0.79799998
0.040328778 0.093768187 -0.80000001
0.04189232 0.093885399 -0.801
0.043513831 0.094119817 -0.80299997
0.045030743 0.094119817 -0.80299997
0.04666359 0.094354242 -0.80500001
0.048303988 0.09458866 -0.80699998
0.050075438 0.095057502 -0.81099999
0.051734731 0.095291927 -0.81300002
0.053270534 0.095291927 -0.81300002
0.055075981 0.095760763 -0.81699997
0.056619339 0.095760763 -0.81699997
0.058305081 0.09599518 -0.81900001
0.059998374 0.096229598 -0.82099998
0.061549287 0.096229598 -0.82099998
0.06340763 0.096698441 -0.82499999
0.065123603 0.096932866 -0.82700002
0.066847116 0.097167283 -0.829
0.068743244 0.097636126 -0.833
0.070485651 0.097870544 -0.83499998
0.072235622 0.098104969 -0.83700001
0.073816761 0.098104969 -0.83700001
0.075578064 0.098339386 -0.83899999
0.077162974 0.098339386 -0.83899999
0.078747891 0.098339386 -0.83899999
0.08052431 0.098573811 -0.84100002
0.082308277 0.098808229 -0.84299999
0.0070283017 0.091596238 -0.79400003
0.0085282112 0.091596238 -0.79400003
0.010028121 0.091596238 -0.79400003
0.011498992 0.091365509 -0.792
0.012962308 0.091134794 -0.79000002
0.014454661 0.091134794 -0.79000002
0.015906641 0.090904072 -0.78799999
0.017395217 0.090904072 -0.78799999
0.018859828 0.090788707 -0.787
0.020294808 0.090557992 -0.78500003
0.021777717 0.090557992 -0.78500003
0.023319887 0.090788707 -0.787
0.024806572 0.090788707 -0.787
0.026293259 0.090788707 -0.787
0.027815243 0.090904072 -0.78799999
0.029303819 0.090904072 -0.78799999
0.030870548 0.091134794 -0.79000002
0.032444831 0.091365509 -0.792
0.034026675 0.091596238 -0.79400003
0.03561607 0.091826953 -0.796
0.037119757 0.091826953 -0.796
0.038720489 0.092057675 -0.79799998
0.040379189 0.092403755 -0.801
0.041996919 0.092634477 -0.80299997
0.043513831 0.092634477 -0.80299997
0.0451429 0.092865199 -0.80500001
0.046779521 0.093095921 -0.80699998
0.048423704 0.093326643 -0.80900002
0.050075438 0.093557358 -0.81099999
0.051734731 0.093788087 -0.81300002
0.053401578 0.094018802 -0.815
0.055075981 0.094249524 -0.81699997
0.056757946 0.094480246 -0.81900001
0.058447462 0.094710968 -0.82099998
0.059998374 0.094710968 -0.82099998
0.061849162 0.095172405 -0.82499999
0.06356135 0.095403135 -0.82700002
0.065281093 0.09563385 -0.829
0.067008391 0.095864572 -0.83099997
0.068908289 0.096326008 -0.83499998
0.070485651 0.096326008 -0.83499998
0.072235622 0.096556738 -0.83700001
0.073993146 0.096787453 -0.83899999
0.075578064 0.096787453 -0.83899999
0.077162974 0.096787453 -0.83899999
0.078935616 0.097018182 -0.84100002
0.0070283017 0.090127543 -0.79400003
0.0085282112 0.090127543 -0.79400003
0.010002861 0.089900516 -0.792
0.011498992 0.089900516 -0.792
0.012962308 0.089673497 -0.79000002
0.014418066 0.089446478 -0.78799999
0.015906641 0.089446478 -0.78799999
0.017395217 0.089446478 -0.78799999
0.018859828 0.089332968 -0.787
0.020346515 0.089332968 -0.787
0.0218332 0.089332968 -0.787
0.023319887 0.089332968 -0.787
0.024806572 0.089332968 -0.787
0.026326668 0.089446478 -0.78799999
0.027815243 0.089446478 -0.78799999
0.029378194 0.089673497 -0.79000002
0.030870548 0.089673497 -0.79000002
0.032526765 0.090127543 -0.79400003
0.034112383 0.090354562 -0.796
0.03561607 0.090354562 -0.796
0.037213024 0.090581581 -0.79799998
0.038817532 0.090808608 -0.80000001
0.040379189 0.090922117 -0.801
0.041996919 0.091149136 -0.80299997
0.043622211 0.091376156 -0.80500001
0.0451429 0.091376156 -0.80500001
0.046779521 0.091603175 -0.80699998
0.048543416 0.092057221 -0.81099999
0.050075438 0.092057221 -0.81099999
0.051734731 0.092284247 -0.81300002
0.053401578 0.092511266 -0.815
0.05521081 0.092965312 -0.81900001
0.056757946 0.092965312 -0.81900001
0.058447462 0.093192331 -0.82099998
0.060144536 0.093419351 -0.82300001
0.061849162 0.09364637 -0.82499999
0.06356135 0.093873397 -0.82700002
0.065281093 0.094100416 -0.829
0.067169659 0.094554462 -0.833
0.068908289 0.094781481 -0.83499998
0.070654482 0.095008507 -0.83700001
0.072235622 0.095008507 -0.83700001
0.073993146 0.095235519 -0.83899999
0.075578064 0.095235519 -0.83899999
0.0070105977 0.088435523 -0.792
0.0085067293 0.088435523 -0.792
0.010002861 0.088435523 -0.792
0.011498992 0.088435523 -0.792
0.012962308 0.088212207 -0.79000002
0.014418066 0.087988876 -0.78799999
0.015906641 0.087988876 -0.78799999
0.017395217 0.087988876 -0.78799999
0.018883793 0.087988876 -0.78799999
0.020346515 0.087877221 -0.787
0.0218332 0.087877221 -0.787
0.023349518 0.087988876 -0.78799999
0.024838094 0.087988876 -0.78799999
0.026326668 0.087988876 -0.78799999
0.027815243 0.087988876 -0.78799999
0.029378194 0.088212207 -0.79000002
0.031026855 0.088658847 -0.79400003
0.032608695 0.088882171 -0.796
0.034112383 0.088882171 -0.796
0.035705555 0.089105487 -0.79799998
0.037213024 0.089105487 -0.79799998
0.038866054 0.089440472 -0.801
0.04048001 0.089663796 -0.80299997
0.041996919 0.089663796 -0.80299997
0.043622211 0.08988712 -0.80500001
0.045255054 0.090110436 -0.80699998
0.046895459 0.09033376 -0.80900002
0.048543416 0.090557083 -0.81099999
0.050198931 0.090780407 -0.81300002
0.051861998 0.091003731 -0.815
0.053532623 0.091227047 -0.81699997
0.05521081 0.091450371 -0.81900001
0.056896545 0.091673695 -0.82099998
0.058589842 0.091897018 -0.82300001
0.060290694 0.092120335 -0.82499999
0.061999101 0.092343666 -0.82700002
0.06356135 0.092343666 -0.82700002
0.065438583 0.092790298 -0.83099997
0.067169659 0.093013629 -0.833
0.068908289 0.093236946 -0.83499998
0.070654482 0.093460269 -0.83700001
0.072235622 0.093460269 -0.83700001
0.0070105977 0.08697053 -0.792
0.0085067293 0.08697053 -0.792
0.010002861 0.08697053 -0.792
0.011469955 0.08675091 -0.79000002
0.012962308 0.08675091 -0.79000002
0.014418066 0.086531281 -0.78799999
0.015906641 0.086531281 -0.78799999
0.017395217 0.086531281 -0.78799999
0.018883793 0.086531281 -0.78799999
0.020372367 0.086531281 -0.78799999
0.021860942 0.086531281 -0.78799999
0.023349518 0.086531281 -0.78799999
0.024838094 0.086531281 -0.78799999
0.026326668 0.086531281 -0.78799999
0.027885841 0.08675091 -0.79000002
0.02945257 0.08697053 -0.792
0.031105008 0.087409772 -0.796
0.032608695 0.087409772 -0.796
0.03419809 0.087629393 -0.79799998
0.035705555 0.087629393 -0.79799998
0.03730629 0.087849021 -0.80000001
0.038866054 0.087958835 -0.801
0.04048001 0.088178448 -0.80299997
0.042101521 0.088398077 -0.80500001
0.043730587 0.088617697 -0.80699998
0.045367211 0.088837326 -0.80900002
0.04701139 0.089056946 -0.81099999
0.048663128 0.089276567 -0.81300002
0.050198931 0.089276567 -0.81300002
0.051989265 0.089715809 -0.81699997
0.053663671 0.089935437 -0.81900001
0.05521081 0.089935437 -0.81900001
0.056896545 0.090155058 -0.82099998
0.058589842 0.090374678 -0.82300001
0.060436856 0.090813927 -0.82700002
0.061999101 0.090813927 -0.82700002
0.063715063 0.091033548 -0.829
0.065438583 0.091253169 -0.83099997
0.067169659 0.09147279 -0.833
0.068908289 0.09169241 -0.83499998
0.0055144667 0.085505538 -0.792
0.0070105977 0.085505538 -0.792
0.0085067293 0.085505538 -0.792
0.0099776015 0.085289612 -0.79000002
0.011469955 0.085289612 -0.79000002
0.012962308 0.085289612 -0.79000002
0.014418066 0.085073687 -0.78799999
0.015906641 0.085073687 -0.78799999
0.017395217 0.085073687 -0.78799999
0.018883793 0.085073687 -0.78799999
0.020372367 0.085073687 -0.78799999
0.021860942 0.085073687 -0.78799999
0.023349518 0.085073687 -0.78799999
0.024838094 0.085073687 -0.78799999
0.026393488 0.085289612 -0.79000002
0.027956437 0.085505538 -0.792
0.029526945 0.085721463 -0.79400003
0.031105008 0.085937381 -0.796
0.032690626 0.086153306 -0.79799998
0.03419809 0.086153306 -0.79799998
0.035795044 0.086369231 -0.80000001
0.03730629 0.086369231 -0.80000001
0.038963098 0.086693108 -0.80299997
0.040580831 0.086909033 -0.80500001
0.042101521 0.086909033 -0.80500001
0.043838967 0.087340884 -0.80900002
0.045479368 0.087556802 -0.81099999
0.047127329 0.087772727 -0.81300002
0.048663128 0.087772727 -0.81300002
0.050322421 0.087988652 -0.815
0.051989265 0.08820457 -0.81699997
0.053663671 0.088420495 -0.81900001
0.055345632 0.088636421 -0.82099998
0.057035152 0.088852346 -0.82300001
0.058732223 0.089068264 -0.82499999
0.060436856 0.089284189 -0.82700002
0.062149037 0.089500114 -0.829
0.063868776 0.089716032 -0.83099997
0.065596081 0.089931957 -0.833
0.0055144667 0.084040545 -0.792
0.0069928947 0.083828323 -0.79000002
0.0084852483 0.083828323 -0.79000002
0.0099776015 0.083828323 -0.79000002
0.011469955 0.083828323 -0.79000002
0.012962308 0.083828323 -0.79000002
0.014418066 0.083616093 -0.78799999
0.015906641 0.083616093 -0.78799999
0.017395217 0.083616093 -0.78799999
0.018883793 0.083616093 -0.78799999
0.020372367 0.083616093 -0.78799999
0.021860942 0.083616093 -0.78799999
0.023349518 0.083616093 -0.78799999
0.024901135 0.083828323 -0.79000002
0.026393488 0.083828323 -0.79000002
0.028027035 0.084252767 -0.79400003
0.029601319 0.08446499 -0.796
0.031183159 0.084677212 -0.79799998
0.032690626 0.084677212 -0.79799998
0.03419809 0.084677212 -0.79799998
0.035795044 0.084889434 -0.80000001
0.037352923 0.084995545 -0.801
0.038963098 0.085207768 -0.80299997
0.040580831 0.085419998 -0.80500001
0.04220612 0.08563222 -0.80699998
0.043947343 0.086056665 -0.81099999
0.045591526 0.086268894 -0.81300002
0.047127329 0.086268894 -0.81300002
0.04878284 0.086481109 -0.815
0.050445907 0.086693332 -0.81699997
0.052116536 0.086905561 -0.81900001
0.053663671 0.086905561 -0.81900001
0.055345632 0.087117784 -0.82099998
0.057173751 0.087542228 -0.82499999
0.058874607 0.087754458 -0.82700002
0.06058301 0.087966681 -0.829
0.062298972 0.088178895 -0.83099997
0.063868776 0.088178895 -0.83099997
0.0040183351 0.082575545 -0.792
0.0055005411 0.082367025 -0.79000002
0.0069928947 0.082367025 -0.79000002
0.0084852483 0.082367025 -0.79000002
0.0099776015 0.082367025 -0.79000002
0.011469955 0.082367025 -0.79000002
0.012929492 0.082158498 -0.78799999
0.014418066 0.082158498 -0.78799999
0.015906641 0.082158498 -0.78799999
0.017395217 0.082158498 -0.78799999
0.018883793 0.082158498 -0.78799999
0.020372367 0.082158498 -0.78799999
0.021860942 0.082158498 -0.78799999
0.023408782 0.082367025 -0.79000002
0.024901135 0.082367025 -0.79000002
0.026393488 0.082367025 -0.79000002
0.028027035 0.082784072 -0.79400003
0.029601319 0.082992598 -0.796
0.031183159 0.083201118 -0.79799998
0.032690626 0.083201118 -0.79799998
0.034283802 0.083409645 -0.80000001
0.035839789 0.083513908 -0.801
0.037446186 0.083722427 -0.80299997
0.039060142 0.083930954 -0.80500001
0.040681653 0.084139474 -0.80699998
0.042415321 0.084556527 -0.81099999
0.043947343 0.084556527 -0.81099999
0.045591526 0.084765054 -0.81300002
0.04724326 0.084973574 -0.815
0.048902549 0.085182093 -0.81699997
0.0505694 0.08539062 -0.81900001
0.052116536 0.08539062 -0.81900001
0.053794719 0.085599147 -0.82099998
0.055480458 0.085807674 -0.82300001
0.057312358 0.08622472 -0.82700002
0.059016984 0.086433247 -0.829
0.06058301 0.086433247 -0.829
0.0040081879 0.080905728 -0.79000002
0.0055005411 0.080905728 -0.79000002
0.0069928947 0.080905728 -0.79000002
0.0084852483 0.080905728 -0.79000002
0.0099523412 0.080700904 -0.78799999
0.011440916 0.080700904 -0.78799999
0.012929492 0.080700904 -0.78799999
0.014418066 0.080700904 -0.78799999
0.015906641 0.080700904 -0.78799999
0.017395217 0.080700904 -0.78799999
0.018883793 0.080700904 -0.78799999
0.020372367 0.080700904 -0.78799999
0.021916429 0.080905728 -0.79000002
0.023408782 0.080905728 -0.79000002
0.024901135 0.080905728 -0.79000002
0.026460307 0.081110552 -0.792
0.028027035 0.081315383 -0.79400003
0.029601319 0.0815202 -0.796
0.031183159 0.081725024 -0.79799998
0.03277256 0.081929855 -0.80000001
0.034326658 0.082032263 -0.801
0.035929274 0.082237087 -0.80299997
0.037539452 0.082441911 -0.80500001
0.039157186 0.082646735 -0.80699998
0.040782478 0.082851566 -0.80900002
0.042415321 0.083056383 -0.81099999
0.044055723 0.083261214 -0.81300002
0.045703679 0.083466038 -0.815
0.047359195 0.083670862 -0.81699997
0.049022265 0.083875686 -0.81900001
0.0505694 0.083875686 -0.81900001
0.052243803 0.08408051 -0.82099998
0.053925768 0.084285334 -0.82300001
0.055750109 0.084694989 -0.82700002
0.0040589245 0.080450058 -0.80000001
0.0055005411 0.079444438 -0.79000002
0.0069928947 0.079444438 -0.79000002
0.0084637655 0.07924331 -0.78799999
0.0099523412 0.07924331 -0.78799999
0.011440916 0.07924331 -0.78799999
0.012929492 0.07924331 -0.78799999
0.014418066 0.07924331 -0.78799999
0.015906641 0.07924331 -0.78799999
0.017395217 0.07924331 -0.78799999
0.018883793 0.07924331 -0.78799999
0.020424075 0.079444438 -0.79000002
0.021916429 0.079444438 -0.79000002
0.023408782 0.079444438 -0.79000002
0.024964174 0.079645559 -0.792
0.026527125 0.079846688 -0.79400003
0.028097631 0.080047809 -0.796
0.029675694 0.08024893 -0.79799998
0.031261314 0.080450058 -0.80000001
0.032813523 0.080550626 -0.801
0.034412365 0.080751747 -0.80299997
0.035929274 0.080751747 -0.80299997
0.037539452 0.080952875 -0.80500001
0.039157186 0.081153996 -0.80699998
0.040883295 0.081556246 -0.81099999
0.042415321 0.081556246 -0.81099999
0.044164099 0.081958495 -0.815
0.045703679 0.081958495 -0.815
0.047359195 0.082159624 -0.81699997
0.049022265 0.082360752 -0.81900001
0.0505694 0.082360752 -0.81900001
0.052243803 0.082561873 -0.82099998
0.054056812 0.082964122 -0.82499999
0.0025476806 0.078970268 -0.80000001
0.0040081879 0.077983141 -0.79000002
0.0055005411 0.077983141 -0.79000002
0.0069751907 0.077785715 -0.78799999
0.0084637655 0.077785715 -0.78799999
0.0099523412 0.077785715 -0.78799999
0.011440916 0.077785715 -0.78799999
0.012929492 0.077785715 -0.78799999
0.014418066 0.077785715 -0.78799999
0.015906641 0.077785715 -0.78799999
0.017395217 0.077785715 -0.78799999
0.018931722 0.077983141 -0.79000002
0.020424075 0.077983141 -0.79000002
0.021971911 0.078180566 -0.792
0.023527307 0.078377992 -0.79400003
0.025027217 0.078377992 -0.79400003
0.026593944 0.078575417 -0.796
0.028168228 0.078772843 -0.79799998
0.02975007 0.078970268 -0.80000001
0.031300392 0.079068981 -0.801
0.032813523 0.079068981 -0.801
0.034412365 0.079266407 -0.80299997
0.036018763 0.079463832 -0.80500001
0.037539452 0.079463832 -0.80500001
0.03925423 0.079858683 -0.80900002
0.040883295 0.080056109 -0.81099999
0.042519923 0.080253534 -0.81300002
0.044164099 0.08045096 -0.815
0.045703679 0.08045096 -0.815
0.047359195 0.080648385 -0.81699997
0.049022265 0.08084581 -0.81900001
0.05069289 0.081043236 -0.82099998
0.0010234813 0.076521844 -0.79000002
0.0025158345 0.076521844 -0.79000002
0.0040081879 0.076521844 -0.79000002
0.0055005411 0.076521844 -0.79000002
0.0069928947 0.076521844 -0.79000002
0.0084637655 0.076328114 -0.78799999
0.0099523412 0.076328114 -0.78799999
0.011440916 0.076328114 -0.78799999
0.012929492 0.076328114 -0.78799999
0.014418066 0.076328114 -0.78799999
0.015906641 0.076328114 -0.78799999
0.017439367 0.076521844 -0.79000002
0.018931722 0.076521844 -0.79000002
0.020475781 0.076715574 -0.792
0.022027398 0.076909296 -0.79400003
0.023527307 0.076909296 -0.79400003
0.025090257 0.077103026 -0.796
0.026660763 0.077296749 -0.79799998
0.028168228 0.077296749 -0.79799998
0.029787257 0.077587336 -0.801
0.031300392 0.077587336 -0.801
0.032895453 0.077781059 -0.80299997
0.034498077 0.077974789 -0.80500001
0.036018763 0.077974789 -0.80500001
0.037632719 0.078168519 -0.80699998
0.03925423 0.078362241 -0.80900002
0.040883295 0.078555971 -0.81099999
0.042519923 0.078749701 -0.81300002
0.044164099 0.078943424 -0.815
0.045815837 0.079137146 -0.81699997
0.047475129 0.079330876 -0.81900001
0.049141977 0.079524599 -0.82099998
0.0010234813 0.075060554 -0.79000002
0.0025158345 0.075060554 -0.79000002
0.0040081879 0.075060554 -0.79000002
0.0055005411 0.075060554 -0.79000002
0.0069928947 0.075060554 -0.79000002
0.0084852483 0.075060554 -0.79000002
0.0099523412 0.074870519 -0.78799999
0.011440916 0.074870519 -0.78799999
0.012929492 0.074870519 -0.78799999
0.014418066 0.074870519 -0.78799999
0.015947014 0.075060554 -0.79000002
0.017439367 0.075060554 -0.79000002
0.018931722 0.075060554 -0.79000002
0.020475781 0.075250573 -0.792
0.022027398 0.075440608 -0.79400003
0.023586569 0.075630628 -0.796
0.025090257 0.075630628 -0.796
0.026660763 0.075820655 -0.79799998
0.028238826 0.076010682 -0.80000001
0.029787257 0.076105699 -0.801
0.031378541 0.076295719 -0.80299997
0.032977387 0.076485753 -0.80500001
0.034498077 0.076485753 -0.80500001
0.036018763 0.076485753 -0.80500001
0.037632719 0.076675773 -0.80699998
0.03925423 0.076865807 -0.80900002
0.040883295 0.077055827 -0.81099999
0.042519923 0.077245861 -0.81300002
0.044272479 0.077625908 -0.81699997
0.045815837 0.077625908 -0.81699997
0.047475129 0.077815935 -0.81900001
-0.00047362014 0.074344561 -0.79799998
0.0010286635 0.073971912 -0.79400003
0.0025285729 0.073971912 -0.79400003
0.0040284824 0.073971912 -0.79400003
0.0055144667 0.073785581 -0.792
0.0069928947 0.073599257 -0.79000002
0.0084852483 0.073599257 -0.79000002
0.0099776015 0.073599257 -0.79000002
0.011440916 0.073412925 -0.78799999
0.012929492 0.073412925 -0.78799999
0.014454661 0.073599257 -0.79000002
0.015947014 0.073599257 -0.79000002
0.017439367 0.073599257 -0.79000002
0.01897965 0.073785581 -0.792
0.020475781 0.073785581 -0.792
0.022082882 0.074158236 -0.796
0.023586569 0.074158236 -0.796
0.025153296 0.074344561 -0.79799998
0.026660763 0.074344561 -0.79799998
0.028274124 0.074624054 -0.801
0.029861631 0.074810378 -0.80299997
0.031378541 0.074810378 -0.80299997
0.032977387 0.07499671 -0.80500001
0.034498077 0.07499671 -0.80500001
0.036108252 0.075183034 -0.80699998
0.037725985 0.075369366 -0.80900002
0.039351273 0.07555569 -0.81099999
0.04098412 0.075742021 -0.81300002
0.042624522 0.075928345 -0.815
0.044272479 0.076114669 -0.81699997
-0.00047540068 0.073142409 -0.801
0.0010338456 0.072868466 -0.79799998
0.0025349422 0.072685845 -0.796
0.0040386296 0.072685845 -0.796
0.0055423174 0.072685845 -0.796
0.0070283017 0.072503217 -0.79400003
0.0085067293 0.072320588 -0.792
0.0099776015 0.072137959 -0.79000002
0.011469955 0.072137959 -0.79000002
0.012962308 0.072137959 -0.79000002
0.014454661 0.072137959 -0.79000002
0.015947014 0.072137959 -0.79000002
0.017439367 0.072137959 -0.79000002
0.01897965 0.072320588 -0.792
0.020475781 0.072320588 -0.792
0.022082882 0.072685845 -0.796
0.023645831 0.072868466 -0.79799998
0.025153296 0.072868466 -0.79799998
0.026727583 0.073051102 -0.80000001
0.028344721 0.073325038 -0.80299997
0.029861631 0.073325038 -0.80299997
0.031456698 0.073507667 -0.80500001
0.032977387 0.073507667 -0.80500001
0.034583785 0.073690295 -0.80699998
0.036197741 0.073872924 -0.80900002
0.037819251 0.074055552 -0.81099999
0.039351273 0.074055552 -0.81099999
0.04098412 0.074238181 -0.81300002
-0.00047540068 0.071660772 -0.801
0.0010364366 0.071571305 -0.80000001
0.0025476806 0.071571305 -0.80000001
0.0040487768 0.07139238 -0.79799998
0.0055423174 0.071213454 -0.796
0.0070460052 0.071213454 -0.796
0.0085282112 0.071034528 -0.79400003
0.010002861 0.070855595 -0.792
0.011498992 0.070855595 -0.792
0.012995124 0.070855595 -0.792
0.014491255 0.070855595 -0.792
0.015987387 0.070855595 -0.792
0.017483518 0.070855595 -0.792
0.01897965 0.070855595 -0.792
0.020527488 0.071034528 -0.79400003
0.022082882 0.071213454 -0.796
0.023645831 0.07139238 -0.79799998
0.025216339 0.071571305 -0.80000001
0.026760992 0.071660772 -0.801
0.028344721 0.071839698 -0.80299997
0.029936008 0.072018631 -0.80500001
0.031456698 0.072018631 -0.80500001
0.033059318 0.072197556 -0.80699998
0.034669496 0.072376482 -0.80900002
0.036287226 0.072555415 -0.81099999
0.037819251 0.072555415 -0.81099999
0.039448317 0.072734341 -0.81300002
0.041084941 0.072913267 -0.815
-0.00047896174 0.070704818 -0.80699998
0.0010377322 0.070179127 -0.801
0.0025476806 0.070091516 -0.80000001
0.0040589245 0.070091516 -0.80000001
0.0055562425 0.069916286 -0.79799998
0.0070460052 0.069741055 -0.796
0.008549693 0.069741055 -0.796
0.010028121 0.069565833 -0.79400003
0.01152803 0.069565833 -0.79400003
0.01302794 0.069565833 -0.79400003
0.01452785 0.069565833 -0.79400003
0.01602776 0.069565833 -0.79400003
0.01752767 0.069565833 -0.79400003
0.019027578 0.069565833 -0.79400003
0.020579195 0.069741055 -0.796
0.022138365 0.069916286 -0.79799998
