# .PCD v0.7 - Point Cloud Data file format
VERSION 0.7
FIELDS x y z
SIZE 4 4 4
TYPE F F F
COUNT 1 1 1
WIDTH 746
HEIGHT 1
VIEWPOINT 0 0 0 1 0 0 0
POINTS 746
DATA ascii
0.046373755 0.14112154 -0.80000001
0.047884997 0.14112154 -0.80000001
0.049396239 0.14112154 -0.80000001
0.050907485 0.14112154 -0.80000001
0.052418727 0.14112154 -0.80000001
0.044750351 0.13929264 -0.79799998
0.046257816 0.13929264 -0.79799998
0.047765281 0.13929264 -0.79799998
0.04927275 0.13929264 -0.79799998
0.050907485 0.13964175 -0.80000001
0.052418727 0.13964175 -0.80000001
0.053929973 0.13964175 -0.80000001
0.043242887 0.13781655 -0.79799998
0.044750351 0.13781655 -0.79799998
0.046257816 0.13781655 -0.79799998
0.047765281 0.13781655 -0.79799998
0.04927275 0.13781655 -0.79799998
0.050780214 0.13781655 -0.79799998
0.052287679 0.13781655 -0.79799998
0.053929973 0.13816196 -0.80000001
0.055441216 0.13816196 -0.80000001
0.043134507 0.13599876 -0.796
0.044638198 0.13599876 -0.796
0.046141885 0.13599876 -0.796
0.047645573 0.13599876 -0.796
0.04914926 0.13599876 -0.796
0.050652947 0.13599876 -0.796
0.052156635 0.13599876 -0.796
0.053795144 0.13634045 -0.79799998
0.055441216 0.13668217 -0.80000001
0.041630819 0.13452636 -0.796
0.043134507 0.13452636 -0.796
0.044638198 0.13452636 -0.796
0.046141885 0.13452636 -0.796
0.047645573 0.13452636 -0.796
0.04914926 0.13452636 -0.796
0.050652947 0.13452636 -0.796
0.052156635 0.13452636 -0.796
0.053660322 0.13452636 -0.796
0.055302612 0.13486436 -0.79799998
0.040026311 0.13271967 -0.79400003
0.041526221 0.13271967 -0.79400003
0.043026131 0.13271967 -0.79400003
0.044526041 0.13271967 -0.79400003
0.04602595 0.13271967 -0.79400003
0.04752586 0.13271967 -0.79400003
0.04902577 0.13271967 -0.79400003
0.05052568 0.13271967 -0.79400003
0.05202559 0.13271967 -0.79400003
0.053660322 0.13305396 -0.796
0.038429357 0.13092035 -0.792
0.039824668 0.13058975 -0.79000002
0.041317023 0.13058975 -0.79000002
0.042809375 0.13058975 -0.79000002
0.04430173 0.13058975 -0.79000002
0.045794081 0.13058975 -0.79000002
0.047286436 0.13058975 -0.79000002
0.048778787 0.13058975 -0.79000002
0.050271142 0.13058975 -0.79000002
0.051763494 0.13058975 -0.79000002
0.0535255 0.13125096 -0.79400003
0.038235269 0.12880154 -0.78799999
0.039723843 0.12880154 -0.78799999
0.041212421 0.12880154 -0.78799999
0.042700995 0.12880154 -0.78799999
0.044189569 0.12880154 -0.78799999
0.045678146 0.12880154 -0.78799999
0.04716672 0.12880154 -0.78799999
0.048655294 0.12880154 -0.78799999
0.050143871 0.12880154 -0.78799999
0.051763494 0.12912846 -0.79000002
0.038186748 0.12718235 -0.787
0.039572615 0.12685914 -0.78500003
0.041160122 0.12718235 -0.787
0.042646807 0.12718235 -0.787
0.044133492 0.12718235 -0.787
0.045620177 0.12718235 -0.787
0.047106866 0.12718235 -0.787
0.048593551 0.12718235 -0.787
0.050080236 0.12718235 -0.787
0.051632445 0.12734395 -0.78799999
0.03799266 0.12508759 -0.78299999
0.03947179 0.12508759 -0.78299999
0.04095092 0.12508759 -0.78299999
0.042430051 0.12508759 -0.78299999
0.043909181 0.12508759 -0.78299999
0.045388311 0.12508759 -0.78299999
0.046987154 0.1254071 -0.78500003
0.048470061 0.1254071 -0.78500003
0.049952969 0.1254071 -0.78500003
0.051632445 0.12588635 -0.78799999
0.036420267 0.12332343 -0.78100002
0.037798572 0.12300762 -0.77899998
0.039270144 0.12300762 -0.77899998
0.040846322 0.12332343 -0.78100002
0.042321675 0.12332343 -0.78100002
0.043797024 0.12332343 -0.78100002
0.045272376 0.12332343 -0.78100002
0.046747729 0.12332343 -0.78100002
0.048346568 0.12363924 -0.78299999
0.049825698 0.12363924 -0.78299999
0.051435877 0.12395505 -0.78500003
0.036326997 0.12156667 -0.77899998
0.037798572 0.12156667 -0.77899998
0.039270144 0.12156667 -0.77899998
0.040741719 0.12156667 -0.77899998
0.042213295 0.12156667 -0.77899998
0.043684866 0.12156667 -0.77899998
0.045156442 0.12156667 -0.77899998
0.046628013 0.12156667 -0.77899998
0.048223082 0.12187879 -0.78100002
0.049698431 0.12187879 -0.78100002
0.051304828 0.12219089 -0.78299999
0.034855425 0.12012573 -0.77899998
0.036280368 0.11997152 -0.778
0.03775005 0.11997152 -0.778
0.039219737 0.11997152 -0.778
0.04068942 0.11997152 -0.778
0.042159103 0.11997152 -0.778
0.043628789 0.11997152 -0.778
0.045098472 0.11997152 -0.778
0.046568159 0.11997152 -0.778
0.048099589 0.12012573 -0.77899998
0.04957116 0.12012573 -0.77899998
0.051042736 0.12012573 -0.77899998
0.034855425 0.11868478 -0.77899998
0.036280368 0.11853242 -0.778
0.03775005 0.11853242 -0.778
0.039219737 0.11853242 -0.778
0.04068942 0.11853242 -0.778
0.042159103 0.11853242 -0.778
0.043628789 0.11853242 -0.778
0.045098472 0.11853242 -0.778
0.046568159 0.11853242 -0.778
0.048037842 0.11853242 -0.778
0.049507529 0.11853242 -0.778
0.050846167 0.11822771 -0.77600002
0.052446898 0.11853242 -0.778
0.034810681 0.11709332 -0.778
0.036280368 0.11709332 -0.778
0.03775005 0.11709332 -0.778
0.039219737 0.11709332 -0.778
0.04068942 0.11709332 -0.778
0.042159103 0.11709332 -0.778
0.043516636 0.11679231 -0.77600002
0.044982541 0.11679231 -0.77600002
0.046448447 0.11679231 -0.77600002
0.047914352 0.11679231 -0.77600002
0.049380261 0.11679231 -0.77600002
0.050846167 0.11679231 -0.77600002
0.052312072 0.11679231 -0.77600002
0.034810681 0.11565422 -0.778
0.036280368 0.11565422 -0.778
0.03775005 0.11565422 -0.778
0.039219737 0.11565422 -0.778
0.04068942 0.11565422 -0.778
0.042050727 0.11535692 -0.77600002
0.043516636 0.11535692 -0.77600002
0.044982541 0.11535692 -0.77600002
0.046448447 0.11535692 -0.77600002
0.047914352 0.11535692 -0.77600002
0.049380261 0.11535692 -0.77600002
0.050846167 0.11535692 -0.77600002
0.052312072 0.11535692 -0.77600002
0.034810681 0.11421513 -0.778
0.036280368 0.11421513 -0.778
0.03775005 0.11421513 -0.778
0.039219737 0.11421513 -0.778
0.04068942 0.11421513 -0.778
0.042159103 0.11421513 -0.778
0.043516636 0.11392152 -0.77600002
0.044982541 0.11392152 -0.77600002
0.046448447 0.11392152 -0.77600002
0.047914352 0.11392152 -0.77600002
0.049380261 0.11392152 -0.77600002
0.050846167 0.11392152 -0.77600002
0.052312072 0.11392152 -0.77600002
0.034855425 0.11292098 -0.77899998
0.036280368 0.11277603 -0.778
0.03775005 0.11277603 -0.778
0.039219737 0.11277603 -0.778
0.04068942 0.11277603 -0.778
0.042159103 0.11277603 -0.778
0.043516636 0.11248612 -0.77600002
0.044982541 0.11248612 -0.77600002
0.046448447 0.11248612 -0.77600002
0.047914352 0.11248612 -0.77600002
0.049380261 0.11248612 -0.77600002
0.050846167 0.11248612 -0.77600002
0.052312072 0.11248612 -0.77600002
0.034944914 0.11176626 -0.78100002
0.036326997 0.11148003 -0.77899998
0.037798572 0.11148003 -0.77899998
0.039219737 0.11133693 -0.778
0.04068942 0.11133693 -0.778
0.042159103 0.11133693 -0.778
0.043628789 0.11133693 -0.778
0.044982541 0.11105072 -0.77600002
0.046448447 0.11105072 -0.77600002
0.047914352 0.11105072 -0.77600002
0.049380261 0.11105072 -0.77600002
0.050846167 0.11105072 -0.77600002
0.052312072 0.11105072 -0.77600002
0.033555269 0.11060412 -0.78299999
0.034944914 0.11032161 -0.78100002
0.036420267 0.11032161 -0.78100002
0.037895616 0.11032161 -0.78100002
0.039270144 0.11003909 -0.77899998
0.040741719 0.11003909 -0.77899998
0.042213295 0.11003909 -0.77899998
0.043628789 0.10989784 -0.778
0.045098472 0.10989784 -0.778
0.046568159 0.10989784 -0.778
0.048037842 0.10989784 -0.778
0.049380261 0.10961533 -0.77600002
0.050846167 0.10961533 -0.77600002
0.032158073 0.10943459 -0.78500003
0.033555269 0.10915577 -0.78299999
0.035034399 0.10915577 -0.78299999
0.036420267 0.10887696 -0.78100002
0.037895616 0.10887696 -0.78100002
0.039370969 0.10887696 -0.78100002
0.040846322 0.10887696 -0.78100002
0.042321675 0.10887696 -0.78100002
0.043684866 0.10859814 -0.77899998
0.045156442 0.10859814 -0.77899998
0.046628013 0.10859814 -0.77899998
0.048099589 0.10859814 -0.77899998
0.049507529 0.10845874 -0.778
0.050977211 0.10845874 -0.778
0.030675165 0.10798255 -0.78500003
0.032158073 0.10798255 -0.78500003
0.033555269 0.10770743 -0.78299999
0.035034399 0.10770743 -0.78299999
0.03651353 0.10770743 -0.78299999
0.037895616 0.10743231 -0.78100002
0.039370969 0.10743231 -0.78100002
0.040846322 0.10743231 -0.78100002
0.042321675 0.10743231 -0.78100002
0.043797024 0.10743231 -0.78100002
0.045272376 0.10743231 -0.78100002
0.046747729 0.10743231 -0.78100002
0.048099589 0.10715719 -0.77899998
0.04957116 0.10715719 -0.77899998
0.051042736 0.10715719 -0.77899998
0.052514307 0.10715719 -0.77899998
0.030675165 0.1065305 -0.78500003
0.032158073 0.1065305 -0.78500003
0.033555269 0.10625908 -0.78299999
0.035034399 0.10625908 -0.78299999
0.03651353 0.10625908 -0.78299999
0.03799266 0.10625908 -0.78299999
0.03947179 0.10625908 -0.78299999
0.040846322 0.10598767 -0.78100002
0.042321675 0.10598767 -0.78100002
0.043797024 0.10598767 -0.78100002
0.045272376 0.10598767 -0.78100002
0.046747729 0.10598767 -0.78100002
0.048223082 0.10598767 -0.78100002
0.049698431 0.10598767 -0.78100002
0.051042736 0.10571625 -0.77899998
0.052514307 0.10571625 -0.77899998
0.030675165 0.10507845 -0.78500003
0.032158073 0.10507845 -0.78500003
0.033555269 0.10481073 -0.78299999
0.035034399 0.10481073 -0.78299999
0.03651353 0.10481073 -0.78299999
0.03799266 0.10481073 -0.78299999
0.03947179 0.10481073 -0.78299999
0.040846322 0.10454302 -0.78100002
0.042321675 0.10454302 -0.78100002
0.043797024 0.10454302 -0.78100002
0.045272376 0.10454302 -0.78100002
0.046747729 0.10454302 -0.78100002
0.048223082 0.10454302 -0.78100002
0.049698431 0.10454302 -0.78100002
0.051173784 0.10454302 -0.78100002
0.052649137 0.10454302 -0.78100002
0.02911788 0.10336239 -0.78299999
0.030597011 0.10336239 -0.78299999
0.032076139 0.10336239 -0.78299999
0.033555269 0.10336239 -0.78299999
0.035034399 0.10336239 -0.78299999
0.03651353 0.10336239 -0.78299999
0.03799266 0.10336239 -0.78299999
0.039370969 0.10309837 -0.78100002
0.040846322 0.10309837 -0.78100002
0.042321675 0.10309837 -0.78100002
0.043797024 0.10309837 -0.78100002
0.045272376 0.10309837 -0.78100002
0.046747729 0.10309837 -0.78100002
0.048223082 0.10309837 -0.78100002
0.049698431 0.10309837 -0.78100002
0.051173784 0.10309837 -0.78100002
0.052649137 0.10309837 -0.78100002
0.026293259 0.10243467 -0.787
0.02763875 0.10191404 -0.78299999
0.02911788 0.10191404 -0.78299999
0.030597011 0.10191404 -0.78299999
0.032076139 0.10191404 -0.78299999
0.033555269 0.10191404 -0.78299999
0.035034399 0.10191404 -0.78299999
0.03651353 0.10191404 -0.78299999
0.037895616 0.10165372 -0.78100002
0.039370969 0.10165372 -0.78100002
0.040846322 0.10165372 -0.78100002
0.042321675 0.10165372 -0.78100002
0.043797024 0.10165372 -0.78100002
0.045272376 0.10165372 -0.78100002
0.046747729 0.10165372 -0.78100002
0.048223082 0.10165372 -0.78100002
0.049698431 0.10165372 -0.78100002
0.051173784 0.10165372 -0.78100002
0.052649137 0.10165372 -0.78100002
0.024806572 0.10097893 -0.787
0.02615962 0.10046569 -0.78299999
0.02763875 0.10046569 -0.78299999
0.02911788 0.10046569 -0.78299999
0.030597011 0.10046569 -0.78299999
0.032076139 0.10046569 -0.78299999
0.033555269 0.10046569 -0.78299999
0.035034399 0.10046569 -0.78299999
0.03651353 0.10046569 -0.78299999
0.037895616 0.10020908 -0.78100002
0.039370969 0.10020908 -0.78100002
0.040846322 0.10020908 -0.78100002
0.042321675 0.10020908 -0.78100002
0.043797024 0.10020908 -0.78100002
0.045272376 0.10020908 -0.78100002
0.046747729 0.10020908 -0.78100002
0.048223082 0.10020908 -0.78100002
0.049698431 0.10020908 -0.78100002
0.051173784 0.10020908 -0.78100002
0.024806572 0.099523187 -0.787
0.02615962 0.099017344 -0.78299999
0.02763875 0.099017344 -0.78299999
0.02911788 0.099017344 -0.78299999
0.030518858 0.098764434 -0.78100002
0.032076139 0.099017344 -0.78299999
0.033555269 0.099017344 -0.78299999
0.035034399 0.099017344 -0.78299999
0.036420267 0.098764434 -0.78100002
0.037895616 0.098764434 -0.78100002
0.039370969 0.098764434 -0.78100002
0.040846322 0.098764434 -0.78100002
0.042321675 0.098764434 -0.78100002
0.043797024 0.098764434 -0.78100002
0.045272376 0.098764434 -0.78100002
0.046747729 0.098764434 -0.78100002
0.048223082 0.098764434 -0.78100002
0.049698431 0.098764434 -0.78100002
0.051173784 0.098764434 -0.78100002
0.02622644 0.097818226 -0.78500003
0.02763875 0.097569004 -0.78299999
0.02911788 0.097569004 -0.78299999
0.030518858 0.097319782 -0.78100002
0.031994209 0.097319782 -0.78100002
0.033469561 0.097319782 -0.78100002
0.034944914 0.097319782 -0.78100002
0.036420267 0.097319782 -0.78100002
0.037895616 0.097319782 -0.78100002
0.039370969 0.097319782 -0.78100002
0.040846322 0.097319782 -0.78100002
0.042321675 0.097319782 -0.78100002
0.043797024 0.097319782 -0.78100002
0.045272376 0.097319782 -0.78100002
0.046747729 0.097319782 -0.78100002
0.048223082 0.097319782 -0.78100002
0.049698431 0.097319782 -0.78100002
0.051173784 0.097319782 -0.78100002
0.02763875 0.096120656 -0.78299999
0.02911788 0.096120656 -0.78299999
0.030518858 0.095875137 -0.78100002
0.031994209 0.095875137 -0.78100002
0.033469561 0.095875137 -0.78100002
0.034944914 0.095875137 -0.78100002
0.036420267 0.095875137 -0.78100002
0.037895616 0.095875137 -0.78100002
0.039370969 0.095875137 -0.78100002
0.040846322 0.095875137 -0.78100002
0.042321675 0.095875137 -0.78100002
0.043797024 0.095875137 -0.78100002
0.045272376 0.095875137 -0.78100002
0.046747729 0.095875137 -0.78100002
0.048223082 0.095875137 -0.78100002
0.049698431 0.095875137 -0.78100002
0.051173784 0.095875137 -0.78100002
0.029192258 0.094914131 -0.78500003
0.030597011 0.094672307 -0.78299999
0.031994209 0.094430491 -0.78100002
0.033469561 0.094430491 -0.78100002
0.034944914 0.094430491 -0.78100002
0.036326997 0.094188668 -0.77899998
0.037798572 0.094188668 -0.77899998
0.039270144 0.094188668 -0.77899998
0.040741719 0.094188668 -0.77899998
0.042213295 0.094188668 -0.77899998
0.043684866 0.094188668 -0.77899998
0.045156442 0.094188668 -0.77899998
0.046628013 0.094188668 -0.77899998
0.048099589 0.094188668 -0.77899998
0.049698431 0.094430491 -0.78100002
0.030518858 0.092985846 -0.78100002
0.031994209 0.092985846 -0.78100002
0.033469561 0.092985846 -0.78100002
0.034855425 0.092747718 -0.77899998
0.036326997 0.092747718 -0.77899998
0.037798572 0.092747718 -0.77899998
0.039270144 0.092747718 -0.77899998
0.040741719 0.092747718 -0.77899998
0.042213295 0.092747718 -0.77899998
0.043684866 0.092747718 -0.77899998
0.045156442 0.092747718 -0.77899998
0.046628013 0.092747718 -0.77899998
0.048099589 0.092747718 -0.77899998
0.04957116 0.092747718 -0.77899998
0.030518858 0.091541193 -0.78100002
0.031994209 0.091541193 -0.78100002
0.033469561 0.091541193 -0.78100002
0.034855425 0.091306768 -0.77899998
0.036326997 0.091306768 -0.77899998
0.037798572 0.091306768 -0.77899998
0.039270144 0.091306768 -0.77899998
0.040741719 0.091306768 -0.77899998
0.042213295 0.091306768 -0.77899998
0.043684866 0.091306768 -0.77899998
0.045156442 0.091306768 -0.77899998
0.046628013 0.091306768 -0.77899998
0.048099589 0.091306768 -0.77899998
0.030597011 0.09032727 -0.78299999
0.031994209 0.090096548 -0.78100002
0.033469561 0.090096548 -0.78100002
0.034944914 0.090096548 -0.78100002
0.036420267 0.090096548 -0.78100002
0.037895616 0.090096548 -0.78100002
0.039270144 0.089865826 -0.77899998
0.040741719 0.089865826 -0.77899998
0.042213295 0.089865826 -0.77899998
0.043684866 0.089865826 -0.77899998
0.045156442 0.089865826 -0.77899998
0.046628013 0.089865826 -0.77899998
0.048099589 0.089865826 -0.77899998
0.032076139 0.088878922 -0.78299999
0.033469561 0.088651903 -0.78100002
0.034944914 0.088651903 -0.78100002
0.036420267 0.088651903 -0.78100002
0.037895616 0.088651903 -0.78100002
0.039370969 0.088651903 -0.78100002
0.040846322 0.088651903 -0.78100002
0.042321675 0.088651903 -0.78100002
0.043797024 0.088651903 -0.78100002
0.045272376 0.088651903 -0.78100002
0.046747729 0.088651903 -0.78100002
0.048223082 0.088651903 -0.78100002
0.032158073 0.087653898 -0.78500003
0.033555269 0.087430574 -0.78299999
0.035034399 0.087430574 -0.78299999
0.03651353 0.087430574 -0.78299999
0.03799266 0.087430574 -0.78299999
0.03947179 0.087430574 -0.78299999
0.040846322 0.087207258 -0.78100002
0.042321675 0.087207258 -0.78100002
0.043797024 0.087207258 -0.78100002
0.045272376 0.087207258 -0.78100002
0.046747729 0.087207258 -0.78100002
0.048223082 0.087207258 -0.78100002
0.032158073 0.086201854 -0.78500003
0.033640981 0.086201854 -0.78500003
0.035123888 0.086201854 -0.78500003
0.036606796 0.086201854 -0.78500003
0.03799266 0.085982226 -0.78299999
0.03947179 0.085982226 -0.78299999
0.04095092 0.085982226 -0.78299999
0.042430051 0.085982226 -0.78299999
0.043797024 0.085762605 -0.78100002
0.045272376 0.085762605 -0.78100002
0.046747729 0.085762605 -0.78100002
0.032240003 0.084965728 -0.787
0.033640981 0.08474981 -0.78500003
0.035123888 0.08474981 -0.78500003
0.036606796 0.08474981 -0.78500003
0.038089704 0.08474981 -0.78500003
0.03947179 0.084533878 -0.78299999
0.04095092 0.084533878 -0.78299999
0.042430051 0.084533878 -0.78299999
0.043909181 0.084533878 -0.78299999
0.045388311 0.084533878 -0.78299999
0.046867438 0.084533878 -0.78299999
0.032240003 0.083509982 -0.787
0.033726688 0.083509982 -0.787
0.035213377 0.083509982 -0.787
0.036700062 0.083509982 -0.787
0.038089704 0.083297759 -0.78500003
0.039572615 0.083297759 -0.78500003
0.04095092 0.083085537 -0.78299999
0.042430051 0.083085537 -0.78299999
0.043909181 0.083085537 -0.78299999
0.045388311 0.083085537 -0.78299999
0.046987154 0.083297759 -0.78500003
0.032240003 0.082054235 -0.787
0.033726688 0.082054235 -0.787
0.035213377 0.082054235 -0.787
0.036700062 0.082054235 -0.787
0.038089704 0.081845716 -0.78500003
0.039572615 0.081845716 -0.78500003
0.041055523 0.081845716 -0.78500003
0.042538431 0.081845716 -0.78500003
0.044021338 0.081845716 -0.78500003
0.045504246 0.081845716 -0.78500003
0.032240003 0.080598488 -0.787
0.033726688 0.080598488 -0.787
0.035213377 0.080598488 -0.787
0.036700062 0.080598488 -0.787
0.038089704 0.080393672 -0.78500003
0.039572615 0.080393672 -0.78500003
0.041055523 0.080393672 -0.78500003
0.042538431 0.080393672 -0.78500003
0.044021338 0.080393672 -0.78500003
0.045504246 0.080393672 -0.78500003
0.030753318 0.079142749 -0.787
0.032240003 0.079142749 -0.787
0.033726688 0.079142749 -0.787
0.035213377 0.079142749 -0.787
0.036606796 0.078941621 -0.78500003
0.038089704 0.078941621 -0.78500003
0.039572615 0.078941621 -0.78500003
0.041055523 0.078941621 -0.78500003
0.042538431 0.078941621 -0.78500003
0.044021338 0.078941621 -0.78500003
0.045504246 0.078941621 -0.78500003
0.046987154 0.078941621 -0.78500003
0.030675165 0.077489577 -0.78500003
0.032158073 0.077489577 -0.78500003
0.033640981 0.077489577 -0.78500003
0.035123888 0.077489577 -0.78500003
0.036606796 0.077489577 -0.78500003
0.038089704 0.077489577 -0.78500003
0.039572615 0.077489577 -0.78500003
0.041055523 0.077489577 -0.78500003
0.042538431 0.077489577 -0.78500003
0.044021338 0.077489577 -0.78500003
0.045504246 0.077489577 -0.78500003
0.046987154 0.077489577 -0.78500003
0.029192258 0.076037534 -0.78500003
0.030675165 0.076037534 -0.78500003
0.032158073 0.076037534 -0.78500003
0.033640981 0.076037534 -0.78500003
0.035123888 0.076037534 -0.78500003
0.036606796 0.076037534 -0.78500003
0.038089704 0.076037534 -0.78500003
0.039572615 0.076037534 -0.78500003
0.041055523 0.076037534 -0.78500003
0.042538431 0.076037534 -0.78500003
0.044021338 0.076037534 -0.78500003
0.045388311 0.075843804 -0.78299999
0.046987154 0.076037534 -0.78500003
0.029192258 0.074585482 -0.78500003
0.030597011 0.074395455 -0.78299999
0.032158073 0.074585482 -0.78500003
0.033640981 0.074585482 -0.78500003
0.035123888 0.074585482 -0.78500003
0.036606796 0.074585482 -0.78500003
0.038089704 0.074585482 -0.78500003
0.03947179 0.074395455 -0.78299999
0.04095092 0.074395455 -0.78299999
0.042430051 0.074395455 -0.78299999
0.043909181 0.074395455 -0.78299999
0.045388311 0.074395455 -0.78299999
0.046867438 0.074395455 -0.78299999
0.048346568 0.074395455 -0.78299999
0.02911788 0.072947107 -0.78299999
0.030597011 0.072947107 -0.78299999
0.032076139 0.072947107 -0.78299999
0.033555269 0.072947107 -0.78299999
0.035034399 0.072947107 -0.78299999
0.03651353 0.072947107 -0.78299999
0.03799266 0.072947107 -0.78299999
0.03947179 0.072947107 -0.78299999
0.04095092 0.072947107 -0.78299999
0.042430051 0.072947107 -0.78299999
0.043909181 0.072947107 -0.78299999
0.045388311 0.072947107 -0.78299999
0.046867438 0.072947107 -0.78299999
0.048346568 0.072947107 -0.78299999
0.049952969 0.073133439 -0.78500003
0.02911788 0.071498759 -0.78299999
0.030597011 0.071498759 -0.78299999
0.032076139 0.071498759 -0.78299999
0.033555269 0.071498759 -0.78299999
0.035034399 0.071498759 -0.78299999
0.03651353 0.071498759 -0.78299999
0.03799266 0.071498759 -0.78299999
0.03947179 0.071498759 -0.78299999
0.04095092 0.071498759 -0.78299999
0.042430051 0.071498759 -0.78299999
0.043909181 0.071498759 -0.78299999
0.045388311 0.071498759 -0.78299999
0.046867438 0.071498759 -0.78299999
0.048346568 0.071498759 -0.78299999
0.049825698 0.071498759 -0.78299999
0.02911788 0.070050418 -0.78299999
0.030597011 0.070050418 -0.78299999
0.032076139 0.070050418 -0.78299999
0.033555269 0.070050418 -0.78299999
0.035034399 0.070050418 -0.78299999
0.03651353 0.070050418 -0.78299999
0.03799266 0.070050418 -0.78299999
0.03947179 0.070050418 -0.78299999
0.04095092 0.070050418 -0.78299999
0.042430051 0.070050418 -0.78299999
0.043909181 0.070050418 -0.78299999
0.045388311 0.070050418 -0.78299999
0.046867438 0.070050418 -0.78299999
0.048346568 0.070050418 -0.78299999
0.027709348 0.0687773 -0.78500003
0.02911788 0.06860207 -0.78299999
0.030597011 0.06860207 -0.78299999
0.032158073 0.0687773 -0.78500003
0.033640981 0.0687773 -0.78500003
0.035123888 0.0687773 -0.78500003
0.03651353 0.06860207 -0.78299999
0.03799266 0.06860207 -0.78299999
0.03947179 0.06860207 -0.78299999
0.04095092 0.06860207 -0.78299999
0.042430051 0.06860207 -0.78299999
0.043909181 0.06860207 -0.78299999
0.045388311 0.06860207 -0.78299999
0.046867438 0.06860207 -0.78299999
0.048346568 0.06860207 -0.78299999
0.027815243 0.067582548 -0.78799999
0.029192258 0.067325257 -0.78500003
0.030675165 0.067325257 -0.78500003
0.032158073 0.067325257 -0.78500003
0.033640981 0.067325257 -0.78500003
0.035123888 0.067325257 -0.78500003
0.036606796 0.067325257 -0.78500003
0.03799266 0.067153722 -0.78299999
0.03947179 0.067153722 -0.78299999
0.04095092 0.067153722 -0.78299999
0.042430051 0.067153722 -0.78299999
0.043909181 0.067153722 -0.78299999
0.045388311 0.067153722 -0.78299999
0.046867438 0.067153722 -0.78299999
0.027815243 0.066124953 -0.78799999
0.029303819 0.066124953 -0.78799999
0.030753318 0.066041037 -0.787
0.032240003 0.066041037 -0.787
0.033726688 0.066041037 -0.787
0.035213377 0.066041037 -0.787
0.036606796 0.065873206 -0.78500003
0.038089704 0.065873206 -0.78500003
0.03947179 0.065705374 -0.78299999
0.04095092 0.065705374 -0.78299999
0.042430051 0.065705374 -0.78299999
0.043909181 0.065705374 -0.78299999
0.045388311 0.065705374 -0.78299999
0.027885841 0.064831488 -0.79000002
0.029303819 0.064667359 -0.78799999
0.030792393 0.064667359 -0.78799999
0.03228097 0.064667359 -0.78799999
0.033769544 0.064667359 -0.78799999
0.035258118 0.064667359 -0.78799999
0.036700062 0.064585291 -0.787
0.038089704 0.064421162 -0.78500003
0.039572615 0.064421162 -0.78500003
0.041055523 0.064421162 -0.78500003
0.042538431 0.064421162 -0.78500003
0.044021338 0.064421162 -0.78500003
0.045504246 0.064421162 -0.78500003
0.026460307 0.063530624 -0.792
0.027885841 0.063370191 -0.79000002
0.029378194 0.063370191 -0.79000002
0.030870548 0.063370191 -0.79000002
0.032362901 0.063370191 -0.79000002
0.033855256 0.063370191 -0.79000002
0.035258118 0.063209757 -0.78799999
0.036746696 0.063209757 -0.78799999
0.038186748 0.063129544 -0.787
0.039572615 0.062969118 -0.78500003
0.041055523 0.062969118 -0.78500003
0.042538431 0.062969118 -0.78500003
0.044021338 0.062969118 -0.78500003
0.026460307 0.062065627 -0.792
0.027885841 0.061908901 -0.79000002
0.029378194 0.061908901 -0.79000002
0.030870548 0.061908901 -0.79000002
0.032362901 0.061908901 -0.79000002
0.033855256 0.061908901 -0.79000002
0.035347607 0.061908901 -0.79000002
0.036746696 0.061752167 -0.78799999
0.038235269 0.061752167 -0.78799999
0.039673433 0.061673801 -0.787
0.041055523 0.061517071 -0.78500003
0.042538431 0.061517071 -0.78500003
0.025247859 0.061289277 -0.801
0.026527125 0.06075367 -0.79400003
0.027956437 0.060600635 -0.792
0.029378194 0.060447603 -0.79000002
0.030870548 0.060447603 -0.79000002
0.032362901 0.060447603 -0.79000002
0.033855256 0.060447603 -0.79000002
0.035347607 0.060447603 -0.79000002
0.036839962 0.060447603 -0.79000002
0.038235269 0.060294569 -0.78799999
0.039723843 0.060294569 -0.78799999
0.041212421 0.060294569 -0.78799999
0.025153296 0.059583638 -0.79799998
0.026527125 0.059284974 -0.79400003
0.028027035 0.059284974 -0.79400003
0.02945257 0.059135642 -0.792
0.0309487 0.059135642 -0.792
0.032444831 0.059135642 -0.792
0.033940963 0.059135642 -0.792
0.035347607 0.05898631 -0.79000002
0.036839962 0.05898631 -0.79000002
0.038332313 0.05898631 -0.79000002
0.039723843 0.058836974 -0.78799999
0.041317023 0.05898631 -0.79000002
0.025153296 0.058107544 -0.79799998
0.026593944 0.057961911 -0.796
0.028027035 0.057816282 -0.79400003
0.029526945 0.057816282 -0.79400003
0.031026855 0.057816282 -0.79400003
0.032444831 0.057670645 -0.792
0.033940963 0.057670645 -0.792
0.035437096 0.057670645 -0.792
0.036839962 0.057525016 -0.79000002
0.038332313 0.057525016 -0.79000002
0.039824668 0.057525016 -0.79000002
0.026593944 0.05648952 -0.796
0.028097631 0.05648952 -0.796
0.029526945 0.056347586 -0.79400003
0.031026855 0.056347586 -0.79400003
0.032526765 0.056347586 -0.79400003
0.034026675 0.056347586 -0.79400003
0.035437096 0.056205653 -0.792
0.036933225 0.056205653 -0.792
0.038332313 0.056063719 -0.79000002
0.039824668 0.056063719 -0.79000002
0.031026855 0.054878894 -0.79400003
0.032526765 0.054878894 -0.79400003
0.034026675 0.054878894 -0.79400003
0.035526585 0.054878894 -0.79400003
0.037026495 0.054878894 -0.79400003
0.038429357 0.054740656 -0.792
0.040026311 0.054878894 -0.79400003
