# .PCD v0.7 - Point Cloud Data file format
VERSION 0.7
FIELDS x y z
SIZE 4 4 4
TYPE F F F
COUNT 1 1 1
WIDTH 1393
HEIGHT 1
VIEWPOINT 0 0 0 1 0 0 0
POINTS 1393
DATA ascii
0.040227953 0.12453171 -0.79799998
0.041735418 0.12453171 -0.79799998
0.043242887 0.12453171 -0.79799998
0.044750351 0.12453171 -0.79799998
0.046141885 0.1242196 -0.796
0.047645573 0.1242196 -0.796
0.04914926 0.1242196 -0.796
0.050652947 0.1242196 -0.796
0.05202559 0.1239075 -0.79400003
0.0535255 0.1239075 -0.79400003
0.05502541 0.1239075 -0.79400003
0.056382935 0.12359539 -0.792
0.05773291 0.12328328 -0.79000002
0.059225261 0.12328328 -0.79000002
0.060717616 0.12328328 -0.79000002
0.062209968 0.12328328 -0.79000002
0.06386359 0.12359539 -0.792
0.014838899 0.12506029 -0.81099999
0.016370922 0.12506029 -0.81099999
0.017858796 0.12475188 -0.80900002
0.01938704 0.12475188 -0.80900002
0.02086358 0.12444346 -0.80699998
0.022332562 0.12413505 -0.80500001
0.023853252 0.12413505 -0.80500001
0.025373941 0.12413505 -0.80500001
0.02682781 0.12382665 -0.80299997
0.028344721 0.12382665 -0.80299997
0.029861631 0.12382665 -0.80299997
0.031300392 0.12351824 -0.801
0.032813523 0.12351824 -0.801
0.034326658 0.12351824 -0.801
0.035839789 0.12351824 -0.801
0.03730629 0.12336403 -0.80000001
0.038817532 0.12336403 -0.80000001
0.040328778 0.12336403 -0.80000001
0.041840021 0.12336403 -0.80000001
0.043242887 0.12305561 -0.79799998
0.044750351 0.12305561 -0.79799998
0.046257816 0.12305561 -0.79799998
0.047645573 0.12274721 -0.796
0.04914926 0.12274721 -0.796
0.050652947 0.12274721 -0.796
0.052156635 0.12274721 -0.796
0.053660322 0.12274721 -0.796
0.05502541 0.1224388 -0.79400003
0.056525316 0.1224388 -0.79400003
0.057879064 0.12213039 -0.792
0.059375197 0.12213039 -0.792
0.060871329 0.12213039 -0.792
0.062367462 0.12213039 -0.792
0.064024866 0.1224388 -0.79400003
0.065689825 0.12274721 -0.796
0.06964653 0.12444346 -0.80699998
0.071170993 0.12444346 -0.80699998
0.013339692 0.12386486 -0.81300002
0.014875493 0.12386486 -0.81300002
0.016370922 0.12356015 -0.81099999
0.017902946 0.12356015 -0.81099999
0.01938704 0.12325544 -0.80900002
0.020915287 0.12325544 -0.80900002
0.022388047 0.12295073 -0.80699998
0.023912514 0.12295073 -0.80699998
0.025373941 0.12264602 -0.80500001
0.026894629 0.12264602 -0.80500001
0.028344721 0.1223413 -0.80299997
0.029861631 0.1223413 -0.80299997
0.031378541 0.1223413 -0.80299997
0.032895453 0.1223413 -0.80299997
0.034412365 0.1223413 -0.80299997
0.035839789 0.12203659 -0.801
0.037352923 0.12203659 -0.801
0.038866054 0.12203659 -0.801
0.040328778 0.12188424 -0.80000001
0.041840021 0.12188424 -0.80000001
0.043351267 0.12188424 -0.80000001
0.044862509 0.12188424 -0.80000001
0.046257816 0.12157953 -0.79799998
0.047765281 0.12157953 -0.79799998
0.04927275 0.12157953 -0.79799998
0.050780214 0.12157953 -0.79799998
0.052287679 0.12157953 -0.79799998
0.053660322 0.12127482 -0.796
0.055164009 0.12127482 -0.796
0.056667697 0.12127482 -0.796
0.058025226 0.12097012 -0.79400003
0.059525136 0.12097012 -0.79400003
0.061025046 0.12097012 -0.79400003
0.062524959 0.12097012 -0.79400003
0.064186133 0.12127482 -0.796
0.065689825 0.12127482 -0.796
0.067193508 0.12127482 -0.796
0.068697199 0.12127482 -0.796
0.070200883 0.12127482 -0.796
0.071704574 0.12127482 -0.796
0.073392197 0.12157953 -0.79799998
0.011861965 0.12296303 -0.81699997
0.013339692 0.12236102 -0.81300002
0.014875493 0.12236102 -0.81300002
0.016370922 0.12206001 -0.81099999
0.017902946 0.12206001 -0.81099999
0.019434968 0.12206001 -0.81099999
0.020915287 0.121759 -0.80900002
0.022443531 0.121759 -0.80900002
0.023912514 0.12145799 -0.80699998
0.025436981 0.12145799 -0.80699998
0.026894629 0.12115698 -0.80500001
0.028415319 0.12115698 -0.80500001
0.029936008 0.12115698 -0.80500001
0.031378541 0.12085596 -0.80299997
0.032895453 0.12085596 -0.80299997
0.034412365 0.12085596 -0.80299997
0.035929274 0.12085596 -0.80299997
0.037446186 0.12085596 -0.80299997
0.038866054 0.12055495 -0.801
0.040379189 0.12055495 -0.801
0.04189232 0.12055495 -0.801
0.043405455 0.12055495 -0.801
0.044918586 0.12055495 -0.801
0.046373755 0.12040445 -0.80000001
0.047884997 0.12040445 -0.80000001
0.049396239 0.12040445 -0.80000001
0.050780214 0.12010343 -0.79799998
0.052287679 0.12010343 -0.79799998
0.053795144 0.12010343 -0.79799998
0.055302612 0.12010343 -0.79799998
0.056667697 0.11980242 -0.796
0.058171384 0.11980242 -0.796
0.059675071 0.11980242 -0.796
0.061178759 0.11980242 -0.796
0.06268245 0.11980242 -0.796
0.064186133 0.11980242 -0.796
0.065689825 0.11980242 -0.796
0.067193508 0.11980242 -0.796
0.068697199 0.11980242 -0.796
0.070200883 0.11980242 -0.796
0.071704574 0.11980242 -0.796
0.073392197 0.12010343 -0.79799998
0.074899666 0.12010343 -0.79799998
0.010318607 0.1214518 -0.81699997
0.011832927 0.12115449 -0.815
0.013339692 0.12085719 -0.81300002
0.014875493 0.12085719 -0.81300002
0.016411295 0.12085719 -0.81300002
0.017902946 0.12055986 -0.81099999
0.019434968 0.12055986 -0.81099999
0.020966992 0.12055986 -0.81099999
0.022443531 0.12026256 -0.80900002
0.023971777 0.12026256 -0.80900002
0.025436981 0.11996524 -0.80699998
0.026961448 0.11996524 -0.80699998
0.028415319 0.11966793 -0.80500001
0.029936008 0.11966793 -0.80500001
0.031456698 0.11966793 -0.80500001
0.032977387 0.11966793 -0.80500001
0.034412365 0.11937062 -0.80299997
0.035929274 0.11937062 -0.80299997
0.037446186 0.11937062 -0.80299997
0.038963098 0.11937062 -0.80299997
0.04048001 0.11937062 -0.80299997
0.041996919 0.11937062 -0.80299997
0.043513831 0.11937062 -0.80299997
0.045030743 0.11937062 -0.80299997
0.04643172 0.11907331 -0.801
0.047884997 0.11892466 -0.80000001
0.049396239 0.11892466 -0.80000001
0.050907485 0.11892466 -0.80000001
0.052418727 0.11892466 -0.80000001
0.053929973 0.11892466 -0.80000001
0.055302612 0.11862734 -0.79799998
0.056810077 0.11862734 -0.79799998
0.058317542 0.11862734 -0.79799998
0.059825007 0.11862734 -0.79799998
0.061332475 0.11862734 -0.79799998
0.06283994 0.11862734 -0.79799998
0.064347401 0.11862734 -0.79799998
0.06585487 0.11862734 -0.79799998
0.067362338 0.11862734 -0.79799998
0.068697199 0.11833003 -0.796
0.070200883 0.11833003 -0.796
0.071704574 0.11833003 -0.796
0.073392197 0.11862734 -0.79799998
0.074899666 0.11862734 -0.79799998
0.076598629 0.11892466 -0.80000001
0.0087967319 0.12023418 -0.81900001
0.010318607 0.11994056 -0.81699997
0.011832927 0.11964695 -0.815
0.013339692 0.11935335 -0.81300002
0.014875493 0.11935335 -0.81300002
0.016411295 0.11935335 -0.81300002
0.017947096 0.11935335 -0.81300002
0.019434968 0.11905973 -0.81099999
0.020966992 0.11905973 -0.81099999
0.022499016 0.11905973 -0.81099999
0.023971777 0.11876612 -0.80900002
0.025500022 0.11876612 -0.80900002
0.027028268 0.11876612 -0.80900002
0.028485915 0.1184725 -0.80699998
0.030010382 0.1184725 -0.80699998
0.031456698 0.1181789 -0.80500001
0.032977387 0.1181789 -0.80500001
0.034498077 0.1181789 -0.80500001
0.036018763 0.1181789 -0.80500001
0.037446186 0.11788528 -0.80299997
0.038963098 0.11788528 -0.80299997
0.04048001 0.11788528 -0.80299997
0.041996919 0.11788528 -0.80299997
0.043513831 0.11788528 -0.80299997
0.045030743 0.11788528 -0.80299997
0.046547651 0.11788528 -0.80299997
0.047944851 0.11759167 -0.801
0.049457986 0.11759167 -0.801
0.050907485 0.11744487 -0.80000001
0.052418727 0.11744487 -0.80000001
0.053929973 0.11744487 -0.80000001
0.055441216 0.11744487 -0.80000001
0.056952462 0.11744487 -0.80000001
0.058317542 0.11715125 -0.79799998
0.059825007 0.11715125 -0.79799998
0.061332475 0.11715125 -0.79799998
0.06283994 0.11715125 -0.79799998
0.064347401 0.11715125 -0.79799998
0.06585487 0.11715125 -0.79799998
0.067362338 0.11715125 -0.79799998
0.068869799 0.11715125 -0.79799998
0.070377268 0.11715125 -0.79799998
0.071884736 0.11715125 -0.79799998
0.073392197 0.11715125 -0.79799998
0.074899666 0.11715125 -0.79799998
0.076598629 0.11744487 -0.80000001
0.078109875 0.11744487 -0.80000001
0.0073204101 0.1198789 -0.82700002
0.0087967319 0.11871924 -0.81900001
0.010318607 0.11842933 -0.81699997
0.011832927 0.11813942 -0.815
0.013372507 0.11813942 -0.815
0.014875493 0.11784951 -0.81300002
0.016411295 0.11784951 -0.81300002
0.017947096 0.11784951 -0.81300002
0.019482898 0.11784951 -0.81300002
0.020966992 0.11755959 -0.81099999
0.022499016 0.11755959 -0.81099999
0.024031039 0.11755959 -0.81099999
0.025500022 0.11726968 -0.80900002
0.027028268 0.11726968 -0.80900002
0.028556513 0.11726968 -0.80900002
0.030010382 0.11697976 -0.80699998
0.031534851 0.11697976 -0.80699998
0.033059318 0.11697976 -0.80699998
0.034498077 0.11668985 -0.80500001
0.036018763 0.11668985 -0.80500001
0.037539452 0.11668985 -0.80500001
0.039060142 0.11668985 -0.80500001
0.040580831 0.11668985 -0.80500001
0.042101521 0.11668985 -0.80500001
0.043622211 0.11668985 -0.80500001
0.045030743 0.11639994 -0.80299997
0.046547651 0.11639994 -0.80299997
0.048064563 0.11639994 -0.80299997
0.049457986 0.11611003 -0.801
0.050971117 0.11611003 -0.801
0.052484252 0.11611003 -0.801
0.053997383 0.11611003 -0.801
0.055510517 0.11611003 -0.801
0.056952462 0.11596508 -0.80000001
0.058463704 0.11596508 -0.80000001
0.059974946 0.11596508 -0.80000001
0.061486192 0.11596508 -0.80000001
0.062997438 0.11596508 -0.80000001
0.064347401 0.11567515 -0.79799998
0.06585487 0.11567515 -0.79799998
0.067362338 0.11567515 -0.79799998
0.068869799 0.11567515 -0.79799998
0.070377268 0.11567515 -0.79799998
0.071884736 0.11567515 -0.79799998
0.073392197 0.11567515 -0.79799998
0.075087383 0.11596508 -0.80000001
0.076598629 0.11596508 -0.80000001
0.078109875 0.11596508 -0.80000001
0.0026400338 0.11863537 -0.829
0.0042060604 0.11863537 -0.829
0.0057581617 0.11834916 -0.82700002
0.0073027061 0.11806294 -0.82499999
0.0088182129 0.11749052 -0.82099998
0.010343867 0.1172043 -0.81900001
0.011861965 0.11691809 -0.81699997
0.013372507 0.11663188 -0.815
0.014912087 0.11663188 -0.815
0.016451666 0.11663188 -0.815
0.017947096 0.11634567 -0.81300002
0.019482898 0.11634567 -0.81300002
0.021018699 0.11634567 -0.81300002
0.022499016 0.11605945 -0.81099999
0.024031039 0.11605945 -0.81099999
0.025563063 0.11605945 -0.81099999
0.027095087 0.11605945 -0.81099999
0.028627109 0.11605945 -0.81099999
0.030084759 0.11577324 -0.80900002
0.031613003 0.11577324 -0.80900002
0.033059318 0.11548702 -0.80699998
0.034583785 0.11548702 -0.80699998
0.036108252 0.11548702 -0.80699998
0.037539452 0.11520081 -0.80500001
0.039060142 0.11520081 -0.80500001
0.040580831 0.11520081 -0.80500001
0.042101521 0.11520081 -0.80500001
0.043622211 0.11520081 -0.80500001
0.0451429 0.11520081 -0.80500001
0.046547651 0.1149146 -0.80299997
0.048064563 0.1149146 -0.80299997
0.049581476 0.1149146 -0.80299997
0.051098384 0.1149146 -0.80299997
0.052615296 0.1149146 -0.80299997
0.053997383 0.11462838 -0.801
0.055510517 0.11462838 -0.801
0.057023648 0.11462838 -0.801
0.058463704 0.11448528 -0.80000001
0.059974946 0.11448528 -0.80000001
0.061486192 0.11448528 -0.80000001
0.062997438 0.11448528 -0.80000001
0.064508677 0.11448528 -0.80000001
0.06585487 0.11419906 -0.79799998
0.067362338 0.11419906 -0.79799998
0.068869799 0.11419906 -0.79799998
0.070377268 0.11419906 -0.79799998
0.071884736 0.11419906 -0.79799998
0.073576145 0.11448528 -0.80000001
0.075087383 0.11448528 -0.80000001
0.076598629 0.11448528 -0.80000001
0.078207508 0.11462838 -0.801
0.0026400338 0.11710194 -0.829
0.0041959132 0.11681943 -0.82700002
0.0057581617 0.11681943 -0.82700002
0.0073027061 0.11653691 -0.82499999
0.0088396948 0.1162544 -0.82300001
0.010343867 0.11568937 -0.81900001
0.011891004 0.11568937 -0.81900001
0.013405323 0.11540685 -0.81699997
0.01494868 0.11540685 -0.81699997
0.016492039 0.11540685 -0.81699997
0.017991247 0.11512434 -0.815
0.019530825 0.11512434 -0.815
0.021018699 0.11484183 -0.81300002
0.022554502 0.11484183 -0.81300002
0.024090303 0.11484183 -0.81300002
0.025563063 0.11455931 -0.81099999
0.027095087 0.11455931 -0.81099999
0.028627109 0.11455931 -0.81099999
0.030159133 0.11455931 -0.81099999
0.031613003 0.1142768 -0.80900002
0.033141248 0.1142768 -0.80900002
0.034583785 0.11399428 -0.80699998
0.036108252 0.11399428 -0.80699998
0.037632719 0.11399428 -0.80699998
0.039157186 0.11399428 -0.80699998
0.040681653 0.11399428 -0.80699998
0.042101521 0.11371177 -0.80500001
0.043622211 0.11371177 -0.80500001
0.0451429 0.11371177 -0.80500001
0.04666359 0.11371177 -0.80500001
0.048064563 0.11342926 -0.80299997
0.049581476 0.11342926 -0.80299997
0.051098384 0.11342926 -0.80299997
0.052615296 0.11342926 -0.80299997
0.054132208 0.11342926 -0.80299997
0.055649117 0.11342926 -0.80299997
0.057023648 0.11314674 -0.801
0.058536783 0.11314674 -0.801
0.060049914 0.11314674 -0.801
0.061486192 0.11300549 -0.80000001
0.062997438 0.11300549 -0.80000001
0.064508677 0.11300549 -0.80000001
0.066019922 0.11300549 -0.80000001
0.067531168 0.11300549 -0.80000001
0.069042414 0.11300549 -0.80000001
0.070553653 0.11300549 -0.80000001
0.072064899 0.11300549 -0.80000001
0.073576145 0.11300549 -0.80000001
0.075181246 0.11314674 -0.801
0.076694377 0.11314674 -0.801
0.0010765985 0.11584731 -0.83099997
0.0026400338 0.1155685 -0.829
0.0041959132 0.11528969 -0.82700002
0.0057581617 0.11528969 -0.82700002
0.0073027061 0.11501087 -0.82499999
0.0088396948 0.11473206 -0.82300001
0.010369127 0.11445324 -0.82099998
0.011891004 0.11417443 -0.81900001
0.013438139 0.11417443 -0.81900001
0.014985275 0.11417443 -0.81900001
0.016492039 0.11389561 -0.81699997
0.018035395 0.11389561 -0.81699997
0.019578753 0.11389561 -0.81699997
0.021070406 0.1136168 -0.815
0.022554502 0.11333799 -0.81300002
0.024090303 0.11333799 -0.81300002
0.025626104 0.11333799 -0.81300002
0.027161906 0.11333799 -0.81300002
0.028697709 0.11333799 -0.81300002
0.030159133 0.11305917 -0.81099999
0.031691156 0.11305917 -0.81099999
0.033223178 0.11305917 -0.81099999
0.034669496 0.11278036 -0.80900002
0.036197741 0.11278036 -0.80900002
0.037725985 0.11278036 -0.80900002
0.03925423 0.11278036 -0.80900002
0.040782478 0.11278036 -0.80900002
0.04220612 0.11250154 -0.80699998
0.043730587 0.11250154 -0.80699998
0.045255054 0.11250154 -0.80699998
0.046779521 0.11250154 -0.80699998
0.048184279 0.11222273 -0.80500001
0.049704965 0.11222273 -0.80500001
0.051225655 0.11222273 -0.80500001
0.052615296 0.11194392 -0.80299997
0.054132208 0.11194392 -0.80299997
0.055649117 0.11194392 -0.80299997
0.057166029 0.11194392 -0.80299997
0.058536783 0.1116651 -0.801
0.060049914 0.1116651 -0.801
0.061563049 0.1116651 -0.801
0.063076183 0.1116651 -0.801
0.064589314 0.1116651 -0.801
0.066102445 0.1116651 -0.801
0.067531168 0.1115257 -0.80000001
0.069042414 0.1115257 -0.80000001
0.070553653 0.1115257 -0.80000001
0.072064899 0.1115257 -0.80000001
0.073668115 0.1116651 -0.801
0.075181246 0.1116651 -0.801
0.076885872 0.11194392 -0.80299997
-0.00049320591 0.11431018 -0.83099997
0.0010765985 0.11431018 -0.83099997
0.0026464032 0.11431018 -0.83099997
0.0042060604 0.11403506 -0.829
0.0057581617 0.11375996 -0.82700002
0.0073204101 0.11375996 -0.82700002
0.0088611767 0.11348484 -0.82499999
0.010394387 0.11320972 -0.82300001
0.01192004 0.1129346 -0.82099998
0.013438139 0.11265949 -0.81900001
0.014985275 0.11265949 -0.81900001
0.016532412 0.11265949 -0.81900001
0.018079547 0.11265949 -0.81900001
0.019578753 0.11238437 -0.81699997
0.021122111 0.11238437 -0.81699997
0.022609985 0.11210926 -0.815
0.024149565 0.11210926 -0.815
0.025689144 0.11210926 -0.815
0.027161906 0.11183415 -0.81300002
0.028697709 0.11183415 -0.81300002
0.03023351 0.11183415 -0.81300002
0.031691156 0.11155903 -0.81099999
0.033223178 0.11155903 -0.81099999
0.034755204 0.11155903 -0.81099999
0.036287226 0.11155903 -0.81099999
0.037725985 0.11128392 -0.80900002
0.03925423 0.11128392 -0.80900002
0.040782478 0.11128392 -0.80900002
0.042310722 0.11128392 -0.80900002
0.043838967 0.11128392 -0.80900002
0.045367211 0.11128392 -0.80900002
0.046895459 0.11128392 -0.80900002
0.048303988 0.1110088 -0.80699998
0.049828455 0.1110088 -0.80699998
0.051225655 0.11073369 -0.80500001
0.052746344 0.11073369 -0.80500001
0.054267034 0.11073369 -0.80500001
0.055649117 0.11045857 -0.80299997
0.057166029 0.11045857 -0.80299997
0.058682941 0.11045857 -0.80299997
0.060199849 0.11045857 -0.80299997
0.061563049 0.11018346 -0.801
0.063076183 0.11018346 -0.801
0.064589314 0.11018346 -0.801
0.066102445 0.11018346 -0.801
0.067615584 0.11018346 -0.801
0.069042414 0.1100459 -0.80000001
0.070553653 0.1100459 -0.80000001
0.072154976 0.11018346 -0.801
0.073668115 0.11018346 -0.801
0.075181246 0.11018346 -0.801
0.076885872 0.11045857 -0.80299997
-0.00049320591 0.11277305 -0.83099997
0.0010765985 0.11277305 -0.83099997
0.0026464032 0.11277305 -0.83099997
0.0042060604 0.11250163 -0.829
0.0057581617 0.11223022 -0.82700002
0.0073204101 0.11223022 -0.82700002
0.0088611767 0.1119588 -0.82499999
0.010394387 0.11168738 -0.82300001
0.01192004 0.11141597 -0.82099998
0.013470955 0.11141597 -0.82099998
0.014985275 0.11114456 -0.81900001
0.016532412 0.11114456 -0.81900001
0.018079547 0.11114456 -0.81900001
0.019626683 0.11114456 -0.81900001
0.021122111 0.11087313 -0.81699997
0.022665469 0.11087313 -0.81699997
0.024149565 0.11060172 -0.815
0.025689144 0.11060172 -0.815
0.027228724 0.11060172 -0.815
0.028697709 0.11033031 -0.81300002
0.03023351 0.11033031 -0.81300002
0.031769309 0.11033031 -0.81300002
0.033305112 0.11033031 -0.81300002
0.034755204 0.1100589 -0.81099999
0.036287226 0.1100589 -0.81099999
0.037819251 0.1100589 -0.81099999
0.039351273 0.1100589 -0.81099999
0.040883295 0.1100589 -0.81099999
0.042415321 0.1100589 -0.81099999
0.043947343 0.1100589 -0.81099999
0.045479368 0.1100589 -0.81099999
0.046895459 0.10978748 -0.80900002
0.048423704 0.10978748 -0.80900002
0.049828455 0.10951606 -0.80699998
0.051352922 0.10951606 -0.80699998
0.052877389 0.10951606 -0.80699998
0.054267034 0.10924465 -0.80500001
0.055787724 0.10924465 -0.80500001
0.057166029 0.10897323 -0.80299997
0.058682941 0.10897323 -0.80299997
0.060199849 0.10897323 -0.80299997
0.061716761 0.10897323 -0.80299997
0.063233674 0.10897323 -0.80299997
0.064750582 0.10897323 -0.80299997
0.066102445 0.10870182 -0.801
0.067615584 0.10870182 -0.801
0.069128715 0.10870182 -0.801
0.070641845 0.10870182 -0.801
0.072154976 0.10870182 -0.801
0.073668115 0.10870182 -0.801
0.075368963 0.10897323 -0.80299997
0.077077374 0.10924465 -0.80500001
0.0010765985 0.11123591 -0.83099997
0.0026400338 0.11096819 -0.829
0.0042060604 0.11096819 -0.829
0.0057581617 0.11070048 -0.82700002
0.0073204101 0.11070048 -0.82700002
0.0088611767 0.11043277 -0.82499999
0.010419646 0.11043277 -0.82499999
0.011949079 0.11016505 -0.82300001
0.013470955 0.10989733 -0.82099998
0.015021869 0.10989733 -0.82099998
0.016572783 0.10989733 -0.82099998
0.018123697 0.10989733 -0.82099998
0.019626683 0.10962962 -0.81900001
0.021173818 0.10962962 -0.81900001
0.022665469 0.1093619 -0.81699997
0.024208827 0.1093619 -0.81699997
0.025752185 0.1093619 -0.81699997
0.027295543 0.1093619 -0.81699997
0.028768305 0.10909419 -0.815
0.030307883 0.10909419 -0.815
0.031769309 0.10882647 -0.81300002
0.033305112 0.10882647 -0.81300002
0.034840915 0.10882647 -0.81300002
0.036287226 0.10855875 -0.81099999
0.037819251 0.10855875 -0.81099999
0.039351273 0.10855875 -0.81099999
0.040883295 0.10855875 -0.81099999
0.042415321 0.10855875 -0.81099999
0.043947343 0.10855875 -0.81099999
0.045479368 0.10855875 -0.81099999
0.04701139 0.10855875 -0.81099999
0.048543416 0.10855875 -0.81099999
0.049951948 0.10829104 -0.80900002
0.051480193 0.10829104 -0.80900002
0.052877389 0.10802332 -0.80699998
0.054401856 0.10802332 -0.80699998
0.055787724 0.10775561 -0.80500001
0.057308413 0.10775561 -0.80500001
0.058682941 0.10748789 -0.80299997
0.060199849 0.10748789 -0.80299997
0.061716761 0.10748789 -0.80299997
0.063233674 0.10748789 -0.80299997
0.064750582 0.10748789 -0.80299997
0.066267498 0.10748789 -0.80299997
0.067615584 0.10722017 -0.801
0.069128715 0.10722017 -0.801
0.070641845 0.10722017 -0.801
0.072154976 0.10722017 -0.801
0.073852047 0.10748789 -0.80299997
0.075368963 0.10748789 -0.80299997
0.077077374 0.10775561 -0.80500001
0.0010765985 0.10969877 -0.83099997
0.0026400338 0.10943476 -0.829
0.0042060604 0.10943476 -0.829
0.0057581617 0.10917075 -0.82700002
0.0073204101 0.10917075 -0.82700002
0.0088826586 0.10917075 -0.82700002
0.010419646 0.10890673 -0.82499999
0.011978117 0.10890673 -0.82499999
0.013503771 0.10864271 -0.82300001
0.015021869 0.10837869 -0.82099998
0.016572783 0.10837869 -0.82099998
0.018123697 0.10837869 -0.82099998
0.01967461 0.10837869 -0.82099998
0.021173818 0.10811468 -0.81900001
0.022720955 0.10811468 -0.81900001
0.024268091 0.10811468 -0.81900001
0.025815226 0.10811468 -0.81900001
0.027295543 0.10785066 -0.81699997
0.028838901 0.10785066 -0.81699997
0.030382257 0.10785066 -0.81699997
0.031847462 0.10758664 -0.815
0.033387043 0.10758664 -0.815
0.034840915 0.10732263 -0.81300002
0.036376715 0.10732263 -0.81300002
0.037912518 0.10732263 -0.81300002
0.039448317 0.10732263 -0.81300002
0.040883295 0.10705861 -0.81099999
0.042415321 0.10705861 -0.81099999
0.043947343 0.10705861 -0.81099999
0.045479368 0.10705861 -0.81099999
0.04701139 0.10705861 -0.81099999
0.048543416 0.10705861 -0.81099999
0.050075438 0.10705861 -0.81099999
0.051480193 0.1067946 -0.80900002
0.053008441 0.1067946 -0.80900002
0.054401856 0.10653058 -0.80699998
0.055926323 0.10653058 -0.80699998
0.057308413 0.10626657 -0.80500001
0.058829103 0.10626657 -0.80500001
0.060199849 0.10600255 -0.80299997
0.061716761 0.10600255 -0.80299997
0.063233674 0.10600255 -0.80299997
0.064750582 0.10600255 -0.80299997
0.066267498 0.10600255 -0.80299997
0.067784406 0.10600255 -0.80299997
0.069301315 0.10600255 -0.80299997
0.070818231 0.10600255 -0.80299997
0.072335139 0.10600255 -0.80299997
0.073852047 0.10600255 -0.80299997
0.075556681 0.10626657 -0.80500001
0.077077374 0.10626657 -0.80500001
0.085732751 0.10758664 -0.815
0.087486491 0.10785066 -0.81699997
-0.00049320591 0.10816164 -0.83099997
0.0010765985 0.10816164 -0.83099997
0.0026400338 0.10790133 -0.829
0.0042060604 0.10790133 -0.829
0.0057720868 0.10790133 -0.829
0.0073204101 0.10764101 -0.82700002
0.0088826586 0.10764101 -0.82700002
0.010444907 0.10764101 -0.82700002
0.011978117 0.1073807 -0.82499999
0.013536587 0.1073807 -0.82499999
0.015058463 0.10712038 -0.82300001
0.016613156 0.10712038 -0.82300001
0.018123697 0.10686006 -0.82099998
0.01967461 0.10686006 -0.82099998
0.021225525 0.10686006 -0.82099998
0.022776438 0.10686006 -0.82099998
0.024268091 0.10659974 -0.81900001
0.025815226 0.10659974 -0.81900001
0.027362362 0.10659974 -0.81900001
0.028909499 0.10659974 -0.81900001
0.030382257 0.10633942 -0.81699997
0.031925615 0.10633942 -0.81699997
0.033387043 0.10607911 -0.815
0.034926623 0.10607911 -0.815
0.036376715 0.10581879 -0.81300002
0.037912518 0.10581879 -0.81300002
0.039448317 0.10581879 -0.81300002
0.04098412 0.10581879 -0.81300002
0.042519923 0.10581879 -0.81300002
0.044055723 0.10581879 -0.81300002
0.045591526 0.10581879 -0.81300002
0.04701139 0.10555848 -0.81099999
0.048543416 0.10555848 -0.81099999
0.050075438 0.10555848 -0.81099999
0.05160746 0.10555848 -0.81099999
0.053008441 0.10529816 -0.80900002
0.054536685 0.10529816 -0.80900002
0.055926323 0.10503784 -0.80699998
0.057450794 0.10503784 -0.80699998
0.058829103 0.10477753 -0.80500001
0.060349792 0.10477753 -0.80500001
0.061870478 0.10477753 -0.80500001
0.063391171 0.10477753 -0.80500001
0.064911857 0.10477753 -0.80500001
0.066267498 0.10451721 -0.80299997
0.067784406 0.10451721 -0.80299997
0.069301315 0.10451721 -0.80299997
0.070818231 0.10451721 -0.80299997
0.072335139 0.10451721 -0.80299997
0.074035995 0.10477753 -0.80500001
0.075556681 0.10477753 -0.80500001
0.077077374 0.10477753 -0.80500001
0.078793332 0.10503784 -0.80699998
0.083986565 0.10581879 -0.81300002
0.085522369 0.10581879 -0.81300002
0.087058172 0.10581879 -0.81300002
-0.00049320591 0.10662451 -0.83099997
0.0010765985 0.10662451 -0.83099997
0.0026464032 0.10662451 -0.83099997
0.0042060604 0.10636789 -0.829
0.0057720868 0.10636789 -0.829
0.0073381132 0.10636789 -0.829
0.0088826586 0.10611128 -0.82700002
0.010444907 0.10611128 -0.82700002
0.012007155 0.10611128 -0.82700002
0.013536587 0.10585466 -0.82499999
0.015095057 0.10585466 -0.82499999
0.016653527 0.10585466 -0.82499999
0.018167848 0.10559804 -0.82300001
0.01972254 0.10559804 -0.82300001
0.021225525 0.10534142 -0.82099998
0.022776438 0.10534142 -0.82099998
0.024327353 0.10534142 -0.82099998
0.025815226 0.10508481 -0.81900001
0.027362362 0.10508481 -0.81900001
0.028909499 0.10508481 -0.81900001
0.030456634 0.10508481 -0.81900001
0.032003772 0.10508481 -0.81900001
0.033468973 0.10482819 -0.81699997
0.035012331 0.10482819 -0.81699997
0.036466204 0.10457157 -0.815
0.03800578 0.10457157 -0.815
0.039448317 0.10431496 -0.81300002
0.04098412 0.10431496 -0.81300002
0.042519923 0.10431496 -0.81300002
0.044055723 0.10431496 -0.81300002
0.045591526 0.10431496 -0.81300002
0.047127329 0.10431496 -0.81300002
0.048543416 0.10405833 -0.81099999
0.050075438 0.10405833 -0.81099999
0.05160746 0.10405833 -0.81099999
0.053139485 0.10405833 -0.81099999
0.054536685 0.10380172 -0.80900002
0.05606493 0.10380172 -0.80900002
0.057450794 0.1035451 -0.80699998
0.058975261 0.1035451 -0.80699998
0.060349792 0.10328849 -0.80500001
0.061870478 0.10328849 -0.80500001
0.063391171 0.10328849 -0.80500001
0.064911857 0.10328849 -0.80500001
0.066432551 0.10328849 -0.80500001
0.067953236 0.10328849 -0.80500001
0.069301315 0.10303187 -0.80299997
0.070818231 0.10303187 -0.80299997
0.072515301 0.10328849 -0.80500001
0.074035995 0.10328849 -0.80500001
0.075556681 0.10328849 -0.80500001
0.077077374 0.10328849 -0.80500001
0.078793332 0.1035451 -0.80699998
0.080516852 0.10380172 -0.80900002
0.082247928 0.10405833 -0.81099999
0.083779953 0.10405833 -0.81099999
0.085522369 0.10431496 -0.81300002
0.087058172 0.10431496 -0.81300002
0.088593967 0.10431496 -0.81300002
-0.0020630104 0.10508737 -0.83099997
-0.00049320591 0.10508737 -0.83099997
0.0010765985 0.10508737 -0.83099997
0.0026464032 0.10508737 -0.83099997
0.0042162077 0.10508737 -0.83099997
0.0057860119 0.10508737 -0.83099997
0.0073381132 0.10483446 -0.829
0.0089041395 0.10483446 -0.829
0.010470166 0.10483446 -0.829
0.012007155 0.10458154 -0.82700002
0.013569403 0.10458154 -0.82700002
0.015131651 0.10458154 -0.82700002
0.016653527 0.10432862 -0.82499999
0.018211998 0.10432862 -0.82499999
0.019770468 0.10432862 -0.82499999
0.021277232 0.10407571 -0.82300001
0.022776438 0.10382278 -0.82099998
0.024327353 0.10382278 -0.82099998
0.025878267 0.10382278 -0.82099998
0.02742918 0.10382278 -0.82099998
0.028909499 0.10356987 -0.81900001
0.030456634 0.10356987 -0.81900001
0.032003772 0.10356987 -0.81900001
0.033550907 0.10356987 -0.81900001
0.035098042 0.10356987 -0.81900001
0.036555689 0.10331695 -0.81699997
0.038099047 0.10331695 -0.81699997
0.039545361 0.10306403 -0.815
0.041084941 0.10306403 -0.815
0.042624522 0.10306403 -0.815
0.044164099 0.10306403 -0.815
0.045591526 0.10281112 -0.81300002
0.047127329 0.10281112 -0.81300002
0.048663128 0.10281112 -0.81300002
0.050198931 0.10281112 -0.81300002
0.05160746 0.1025582 -0.81099999
0.053139485 0.1025582 -0.81099999
0.054671507 0.1025582 -0.81099999
0.056203533 0.1025582 -0.81099999
0.057593174 0.10230528 -0.80900002
0.058975261 0.10205236 -0.80699998
0.060499728 0.10205236 -0.80699998
0.062024195 0.10205236 -0.80699998
0.063548662 0.10205236 -0.80699998
0.065073125 0.10205236 -0.80699998
0.066432551 0.10179944 -0.80500001
0.067953236 0.10179944 -0.80500001
0.069473922 0.10179944 -0.80500001
0.070994616 0.10179944 -0.80500001
0.072515301 0.10179944 -0.80500001
0.074035995 0.10179944 -0.80500001
0.075556681 0.10179944 -0.80500001
0.077268869 0.10205236 -0.80699998
0.078793332 0.10205236 -0.80699998
0.080317803 0.10205236 -0.80699998
0.082045101 0.10230528 -0.80900002
0.083779953 0.1025582 -0.81099999
0.085311979 0.1025582 -0.81099999
0.087058172 0.10281112 -0.81300002
0.088593967 0.10281112 -0.81300002
0.09012977 0.10281112 -0.81300002
-0.0020679757 0.10379946 -0.833
-0.000494393 0.10379946 -0.833
0.0010791897 0.10379946 -0.833
0.0026527725 0.10379946 -0.833
0.0042263549 0.10379946 -0.833
0.0057860119 0.10355024 -0.83099997
0.0073558167 0.10355024 -0.83099997
0.0089041395 0.10330103 -0.829
0.010470166 0.10330103 -0.829
0.012036192 0.10330103 -0.829
0.013602219 0.10330103 -0.829
0.015131651 0.10305181 -0.82700002
0.016693899 0.10305181 -0.82700002
0.018256148 0.10305181 -0.82700002
0.019818397 0.10305181 -0.82700002
0.021328937 0.10280258 -0.82499999
0.022831924 0.10255337 -0.82300001
0.024386616 0.10255337 -0.82300001
0.025941309 0.10255337 -0.82300001
0.02742918 0.10230415 -0.82099998
0.028980095 0.10230415 -0.82099998
0.030531008 0.10230415 -0.82099998
0.032081921 0.10230415 -0.82099998
0.033550907 0.10205493 -0.81900001
0.035098042 0.10205493 -0.81900001
0.036645178 0.10205493 -0.81900001
0.038099047 0.10180571 -0.81699997
0.039642405 0.10180571 -0.81699997
0.041084941 0.10155649 -0.815
0.042624522 0.10155649 -0.815
0.044164099 0.10155649 -0.815
0.045703679 0.10155649 -0.815
0.047127329 0.10130728 -0.81300002
0.048663128 0.10130728 -0.81300002
0.050198931 0.10130728 -0.81300002
0.051734731 0.10130728 -0.81300002
0.053139485 0.10105806 -0.81099999
0.054671507 0.10105806 -0.81099999
0.056203533 0.10105806 -0.81099999
0.057735555 0.10105806 -0.81099999
0.059121422 0.10080884 -0.80900002
0.060649667 0.10080884 -0.80900002
0.062177911 0.10080884 -0.80900002
0.06370616 0.10080884 -0.80900002
0.065073125 0.10055962 -0.80699998
0.066597596 0.10055962 -0.80699998
0.068122059 0.10055962 -0.80699998
0.069473922 0.10031041 -0.80500001
0.070994616 0.10031041 -0.80500001
0.072515301 0.10031041 -0.80500001
0.074035995 0.10031041 -0.80500001
0.075744398 0.10055962 -0.80699998
0.077268869 0.10055962 -0.80699998
0.078793332 0.10055962 -0.80699998
0.080317803 0.10055962 -0.80699998
0.082045101 0.10080884 -0.80900002
0.083779953 0.10105806 -0.81099999
0.085311979 0.10105806 -0.81099999
0.086843997 0.10105806 -0.81099999
0.088593967 0.10130728 -0.81300002
0.09012977 0.10130728 -0.81300002
0.091665573 0.10130728 -0.81300002
-0.0020729408 0.10250414 -0.83499998
-0.00049557997 0.10250414 -0.83499998
0.0010817808 0.10250414 -0.83499998
0.0026527725 0.10225863 -0.833
0.0042263549 0.10225863 -0.833
0.0057999375 0.10225863 -0.833
0.0073558167 0.1020131 -0.83099997
0.0089256214 0.1020131 -0.83099997
0.010470166 0.10176759 -0.829
0.012036192 0.10176759 -0.829
0.013602219 0.10176759 -0.829
0.015168245 0.10176759 -0.829
0.016693899 0.10152207 -0.82700002
0.018256148 0.10152207 -0.82700002
0.019818397 0.10152207 -0.82700002
0.021380646 0.10152207 -0.82700002
0.022887409 0.10127655 -0.82499999
0.024445878 0.10127655 -0.82499999
0.025941309 0.10103104 -0.82300001
0.027496001 0.10103104 -0.82300001
0.028980095 0.10078551 -0.82099998
0.030531008 0.10078551 -0.82099998
0.032081921 0.10078551 -0.82099998
0.033632837 0.10078551 -0.82099998
0.03518375 0.10078551 -0.82099998
0.036645178 0.10054 -0.81900001
0.038192313 0.10054 -0.81900001
0.039642405 0.10029447 -0.81699997
0.041185763 0.10029447 -0.81699997
0.042624522 0.10004896 -0.815
0.044164099 0.10004896 -0.815
0.045703679 0.10004896 -0.815
0.04724326 0.10004896 -0.815
0.048663128 0.09980344 -0.81300002
0.050198931 0.09980344 -0.81300002
0.051734731 0.09980344 -0.81300002
0.053270534 0.09980344 -0.81300002
0.054806337 0.09980344 -0.81300002
0.056203533 0.099557921 -0.81099999
0.057735555 0.099557921 -0.81099999
0.059267577 0.099557921 -0.81099999
0.060799602 0.099557921 -0.81099999
0.062331624 0.099557921 -0.81099999
0.06386365 0.099557921 -0.81099999
0.0652344 0.099312402 -0.80900002
0.066762649 0.099312402 -0.80900002
0.068122059 0.099066876 -0.80699998
0.06964653 0.099066876 -0.80699998
0.071170993 0.099066876 -0.80699998
0.072695464 0.099066876 -0.80699998
0.074219935 0.099066876 -0.80699998
0.075744398 0.099066876 -0.80699998
0.077268869 0.099066876 -0.80699998
0.078793332 0.099066876 -0.80699998
0.080317803 0.099066876 -0.80699998
0.082045101 0.099312402 -0.80900002
0.083573349 0.099312402 -0.80900002
0.085311979 0.099557921 -0.81099999
0.086843997 0.099557921 -0.81099999
0.088376023 0.099557921 -0.81099999
0.089908049 0.099557921 -0.81099999
0.091440067 0.099557921 -0.81099999
0.092972092 0.099557921 -0.81099999
-0.00049557997 0.10095961 -0.83499998
0.0010817808 0.10095961 -0.83499998
0.0026591416 0.10095961 -0.83499998
0.0042263549 0.1007178 -0.833
0.0057999375 0.1007178 -0.833
0.0073735202 0.1007178 -0.833
0.0089256214 0.10047597 -0.83099997
0.010495425 0.10047597 -0.83099997
0.012036192 0.10023415 -0.829
0.013602219 0.10023415 -0.829
0.015168245 0.10023415 -0.829
0.016734272 0.10023415 -0.829
0.018256148 0.099992335 -0.82700002
0.019818397 0.099992335 -0.82700002
0.021380646 0.099992335 -0.82700002
0.022942893 0.099992335 -0.82700002
0.024445878 0.099750511 -0.82499999
0.026004348 0.099750511 -0.82499999
0.027496001 0.099508695 -0.82300001
0.029050693 0.099508695 -0.82300001
0.030605385 0.099508695 -0.82300001
0.032081921 0.099266872 -0.82099998
0.033632837 0.099266872 -0.82099998
0.03518375 0.099266872 -0.82099998
0.036734663 0.099266872 -0.82099998
0.038192313 0.099025056 -0.81900001
0.039739449 0.099025056 -0.81900001
0.041185763 0.098783232 -0.81699997
0.042729121 0.098783232 -0.81699997
0.044272479 0.098783232 -0.81699997
0.045703679 0.098541416 -0.815
0.04724326 0.098541416 -0.815
0.04878284 0.098541416 -0.815
0.050198931 0.0982996 -0.81300002
0.051734731 0.0982996 -0.81300002
0.053270534 0.0982996 -0.81300002
0.054806337 0.0982996 -0.81300002
0.056342136 0.0982996 -0.81300002
0.057877939 0.0982996 -0.81300002
0.059267577 0.098057777 -0.81099999
0.060799602 0.098057777 -0.81099999
0.062331624 0.098057777 -0.81099999
0.06386365 0.098057777 -0.81099999
0.065395676 0.098057777 -0.81099999
0.066927694 0.098057777 -0.81099999
0.068290897 0.097815961 -0.80900002
0.069819137 0.097815961 -0.80900002
0.071170993 0.097574137 -0.80699998
0.072695464 0.097574137 -0.80699998
0.074219935 0.097574137 -0.80699998
0.075744398 0.097574137 -0.80699998
0.077268869 0.097574137 -0.80699998
0.078793332 0.097574137 -0.80699998
0.080317803 0.097574137 -0.80699998
0.081842266 0.097574137 -0.80699998
0.083573349 0.097815961 -0.80900002
0.08510159 0.097815961 -0.80900002
0.086843997 0.098057777 -0.81099999
0.088376023 0.098057777 -0.81099999
0.089908049 0.098057777 -0.81099999
0.091440067 0.098057777 -0.81099999
0.092972092 0.098057777 -0.81099999
0.094504118 0.098057777 -0.81099999
-0.000496767 0.099653199 -0.83700001
0.0010817808 0.099415079 -0.83499998
0.0026591416 0.099415079 -0.83499998
0.0042365021 0.099415079 -0.83499998
0.0057999375 0.099176958 -0.833
0.0073735202 0.099176958 -0.833
0.0089471033 0.099176958 -0.833
0.010520685 0.099176958 -0.833
0.01206523 0.098938838 -0.83099997
0.013635035 0.098938838 -0.83099997
0.015168245 0.098700717 -0.829
0.016734272 0.098700717 -0.829
0.018300299 0.098700717 -0.829
0.019866325 0.098700717 -0.829
0.021432351 0.098700717 -0.829
0.022998378 0.098700717 -0.829
0.024505142 0.098462604 -0.82700002
0.026067391 0.098462604 -0.82700002
0.027562819 0.098224476 -0.82499999
0.029121289 0.098224476 -0.82499999
0.030679759 0.098224476 -0.82499999
0.032160077 0.097986363 -0.82300001
0.033632837 0.097748235 -0.82099998
0.03518375 0.097748235 -0.82099998
0.036734663 0.097748235 -0.82099998
0.03828558 0.097748235 -0.82099998
0.039739449 0.097510122 -0.81900001
0.041286584 0.097510122 -0.81900001
0.042729121 0.097271994 -0.81699997
0.044272479 0.097271994 -0.81699997
0.045815837 0.097271994 -0.81699997
0.04724326 0.097033881 -0.815
0.04878284 0.097033881 -0.815
0.050322421 0.097033881 -0.815
0.051734731 0.09679576 -0.81300002
0.053270534 0.09679576 -0.81300002
0.054806337 0.09679576 -0.81300002
0.056342136 0.09679576 -0.81300002
0.057877939 0.09679576 -0.81300002
0.059413739 0.09679576 -0.81300002
0.060949542 0.09679576 -0.81300002
0.062485345 0.09679576 -0.81300002
0.064021148 0.09679576 -0.81300002
0.065395676 0.09655764 -0.81099999
0.066927694 0.09655764 -0.81099999
0.068459719 0.09655764 -0.81099999
0.069819137 0.096319519 -0.80900002
0.071347386 0.096319519 -0.80900002
0.072875626 0.096319519 -0.80900002
0.074403875 0.096319519 -0.80900002
0.075932123 0.096319519 -0.80900002
0.077268869 0.096081398 -0.80699998
0.078793332 0.096081398 -0.80699998
0.080317803 0.096081398 -0.80699998
0.081842266 0.096081398 -0.80699998
0.083366737 0.096081398 -0.80699998
0.08510159 0.096319519 -0.80900002
0.086629838 0.096319519 -0.80900002
0.088158086 0.096319519 -0.80900002
0.089686327 0.096319519 -0.80900002
0.091214575 0.096319519 -0.80900002
0.092742816 0.096319519 -0.80900002
0.094504118 0.09655764 -0.81099999
-0.00049795402 0.098339386 -0.83899999
0.0010843719 0.098104969 -0.83700001
0.0026591416 0.097870544 -0.83499998
0.0042365021 0.097870544 -0.83499998
0.0058138631 0.097870544 -0.83499998
0.0073912237 0.097870544 -0.83499998
0.0089471033 0.097636126 -0.833
0.010520685 0.097636126 -0.833
0.012094269 0.097636126 -0.833
0.013635035 0.097401701 -0.83099997
0.015204839 0.097401701 -0.83099997
0.016774643 0.097401701 -0.83099997
0.018300299 0.097167283 -0.829
0.019866325 0.097167283 -0.829
0.021432351 0.097167283 -0.829
0.022998378 0.097167283 -0.829
0.024564404 0.097167283 -0.829
0.026067391 0.096932866 -0.82700002
0.027629638 0.096932866 -0.82700002
0.029191887 0.096932866 -0.82700002
0.030754136 0.096932866 -0.82700002
0.03223823 0.096698441 -0.82499999
0.033714768 0.096464023 -0.82300001
0.035269462 0.096464023 -0.82300001
0.036734663 0.096229598 -0.82099998
0.03828558 0.096229598 -0.82099998
0.039836492 0.096229598 -0.82099998
0.041286584 0.09599518 -0.81900001
0.042833723 0.09599518 -0.81900001
0.044272479 0.095760763 -0.81699997
0.045815837 0.095760763 -0.81699997
0.047359195 0.095760763 -0.81699997
0.048902549 0.095760763 -0.81699997
0.050322421 0.095526345 -0.815
0.051861998 0.095526345 -0.815
0.053401578 0.095526345 -0.815
0.054941159 0.095526345 -0.815
0.056480739 0.095526345 -0.815
0.058020316 0.095526345 -0.815
0.059413739 0.095291927 -0.81300002
0.060949542 0.095291927 -0.81300002
0.062485345 0.095291927 -0.81300002
0.064021148 0.095291927 -0.81300002
0.065556943 0.095291927 -0.81300002
0.066927694 0.095057502 -0.81099999
0.068459719 0.095057502 -0.81099999
0.069991745 0.095057502 -0.81099999
0.071523763 0.095057502 -0.81099999
0.072875626 0.094823085 -0.80900002
0.074403875 0.094823085 -0.80900002
0.075932123 0.094823085 -0.80900002
0.077460364 0.094823085 -0.80900002
0.078793332 0.09458866 -0.80699998
0.080317803 0.09458866 -0.80699998
0.081842266 0.09458866 -0.80699998
0.083573349 0.094823085 -0.80900002
0.08510159 0.094823085 -0.80900002
0.086629838 0.094823085 -0.80900002
0.088158086 0.094823085 -0.80900002
0.089686327 0.094823085 -0.80900002
0.091214575 0.094823085 -0.80900002
0.092742816 0.094823085 -0.80900002
0.094504118 0.095057502 -0.81099999
0.096036144 0.095057502 -0.81099999
-0.0020928013 0.097248897 -0.84299999
-0.00049914105 0.097018182 -0.84100002
0.0010843719 0.096556738 -0.83700001
0.0026655109 0.096556738 -0.83700001
0.0042365021 0.096326008 -0.83499998
0.0058138631 0.096326008 -0.83499998
0.0073912237 0.096326008 -0.83499998
0.0089685842 0.096326008 -0.83499998
0.010545945 0.096326008 -0.83499998
0.012094269 0.096095294 -0.833
0.013667851 0.096095294 -0.833
0.015204839 0.095864572 -0.83099997
0.016774643 0.095864572 -0.83099997
0.018344449 0.095864572 -0.83099997
0.019866325 0.09563385 -0.829
0.021432351 0.09563385 -0.829
0.022998378 0.09563385 -0.829
0.024564404 0.09563385 -0.829
0.02613043 0.09563385 -0.829
0.027629638 0.095403135 -0.82700002
0.029191887 0.095403135 -0.82700002
0.030754136 0.095403135 -0.82700002
0.032316383 0.095403135 -0.82700002
0.033796698 0.095172405 -0.82499999
0.035355169 0.095172405 -0.82499999
0.036824152 0.094941691 -0.82300001
0.03828558 0.094710968 -0.82099998
0.039836492 0.094710968 -0.82099998
0.041286584 0.094480246 -0.81900001
0.042833723 0.094480246 -0.81900001
0.044380859 0.094480246 -0.81900001
0.045927994 0.094480246 -0.81900001
0.047475129 0.094480246 -0.81900001
0.048902549 0.094249524 -0.81699997
0.050445907 0.094249524 -0.81699997
0.051989265 0.094249524 -0.81699997
0.053532623 0.094249524 -0.81699997
0.055075981 0.094249524 -0.81699997
0.056480739 0.094018802 -0.815
0.058020316 0.094018802 -0.815
0.059559897 0.094018802 -0.815
0.061099477 0.094018802 -0.815
0.062639058 0.094018802 -0.815
0.064178638 0.094018802 -0.815
0.065556943 0.093788087 -0.81300002
0.067092746 0.093788087 -0.81300002
0.06862855 0.093788087 -0.81300002
0.070164353 0.093788087 -0.81300002
0.071523763 0.093557358 -0.81099999
0.073055789 0.093557358 -0.81099999
0.074587815 0.093557358 -0.81099999
0.075932123 0.093326643 -0.80900002
0.077460364 0.093326643 -0.80900002
0.078988612 0.093326643 -0.80900002
0.080516852 0.093326643 -0.80900002
0.082045101 0.093326643 -0.80900002
0.083573349 0.093326643 -0.80900002
0.08510159 0.093326643 -0.80900002
0.086629838 0.093326643 -0.80900002
0.088158086 0.093326643 -0.80900002
0.089686327 0.093326643 -0.80900002
0.091214575 0.093326643 -0.80900002
0.092972092 0.093557358 -0.81099999
0.094504118 0.093557358 -0.81099999
0.096036144 0.093557358 -0.81099999
-0.00049914105 0.095462546 -0.84100002
0.001086963 0.095235519 -0.83899999
0.0026655109 0.095008507 -0.83700001
0.0042466498 0.095008507 -0.83700001
0.0058277887 0.095008507 -0.83700001
0.0074089277 0.095008507 -0.83700001
0.0089685842 0.094781481 -0.83499998
0.010545945 0.094781481 -0.83499998
0.012123306 0.094781481 -0.83499998
0.013667851 0.094554462 -0.833
0.015241434 0.094554462 -0.833
0.016815016 0.094554462 -0.833
0.018344449 0.094327435 -0.83099997
0.019914253 0.094327435 -0.83099997
0.021484056 0.094327435 -0.83099997
0.023053862 0.094327435 -0.83099997
0.024564404 0.094100416 -0.829
0.02613043 0.094100416 -0.829
0.027696457 0.094100416 -0.829
0.029262483 0.094100416 -0.829
0.030828509 0.094100416 -0.829
0.032316383 0.093873397 -0.82700002
0.033878632 0.093873397 -0.82700002
0.035440881 0.093873397 -0.82700002
0.036913641 0.09364637 -0.82499999
0.038378846 0.093419351 -0.82300001
0.039933536 0.093419351 -0.82300001
0.041387405 0.093192331 -0.82099998
0.042833723 0.092965312 -0.81900001
0.044380859 0.092965312 -0.81900001
0.045927994 0.092965312 -0.81900001
0.047475129 0.092965312 -0.81900001
0.049022265 0.092965312 -0.81900001
0.0505694 0.092965312 -0.81900001
0.051989265 0.092738286 -0.81699997
0.053532623 0.092738286 -0.81699997
0.055075981 0.092738286 -0.81699997
0.056619339 0.092738286 -0.81699997
0.058162697 0.092738286 -0.81699997
0.059706055 0.092738286 -0.81699997
0.061099477 0.092511266 -0.815
0.062639058 0.092511266 -0.815
0.064178638 0.092511266 -0.815
0.065718219 0.092511266 -0.815
0.067092746 0.092284247 -0.81300002
0.06862855 0.092284247 -0.81300002
0.070164353 0.092284247 -0.81300002
0.071700156 0.092284247 -0.81300002
0.073055789 0.092057221 -0.81099999
0.074587815 0.092057221 -0.81099999
0.076119833 0.092057221 -0.81099999
0.077651858 0.092057221 -0.81099999
0.078988612 0.091830201 -0.80900002
0.080516852 0.091830201 -0.80900002
0.082045101 0.091830201 -0.80900002
0.083573349 0.091830201 -0.80900002
0.08510159 0.091830201 -0.80900002
0.086629838 0.091830201 -0.80900002
0.088158086 0.091830201 -0.80900002
0.089686327 0.091830201 -0.80900002
0.091440067 0.092057221 -0.81099999
0.092972092 0.092057221 -0.81099999
0.094504118 0.092057221 -0.81099999
0.096036144 0.092057221 -0.81099999
0.0026718799 0.093683593 -0.83899999
0.0042466498 0.093460269 -0.83700001
0.0058277887 0.093460269 -0.83700001
0.0074089277 0.093460269 -0.83700001
0.0089900661 0.093460269 -0.83700001
0.010545945 0.093236946 -0.83499998
0.012123306 0.093236946 -0.83499998
0.013700667 0.093236946 -0.83499998
0.015241434 0.093013629 -0.833
0.016815016 0.093013629 -0.833
0.018388599 0.093013629 -0.833
0.019962182 0.093013629 -0.833
0.021484056 0.092790298 -0.83099997
0.023053862 0.092790298 -0.83099997
0.024623666 0.092790298 -0.83099997
0.02619347 0.092790298 -0.83099997
0.027696457 0.092566982 -0.829
0.029262483 0.092566982 -0.829
0.030828509 0.092566982 -0.829
0.032394536 0.092566982 -0.829
0.033960562 0.092566982 -0.829
0.035440881 0.092343666 -0.82700002
0.03700313 0.092343666 -0.82700002
0.038472109 0.092120335 -0.82499999
0.04003058 0.092120335 -0.82499999
0.041589051 0.092120335 -0.82499999
0.043042921 0.091897018 -0.82300001
0.044489235 0.091673695 -0.82099998
0.045927994 0.091450371 -0.81900001
0.047475129 0.091450371 -0.81900001
0.049022265 0.091450371 -0.81900001
0.0505694 0.091450371 -0.81900001
0.052116536 0.091450371 -0.81900001
0.053663671 0.091450371 -0.81900001
0.05521081 0.091450371 -0.81900001
0.056619339 0.091227047 -0.81699997
0.058162697 0.091227047 -0.81699997
0.059706055 0.091227047 -0.81699997
0.061249413 0.091227047 -0.81699997
0.062792771 0.091227047 -0.81699997
0.064336129 0.091227047 -0.81699997
0.065718219 0.091003731 -0.815
0.067257799 0.091003731 -0.815
0.068797372 0.091003731 -0.815
0.070164353 0.090780407 -0.81300002
0.071700156 0.090780407 -0.81300002
0.073235951 0.090780407 -0.81300002
0.074771754 0.090780407 -0.81300002
0.076119833 0.090557083 -0.81099999
0.077651858 0.090557083 -0.81099999
0.079183884 0.090557083 -0.81099999
0.080516852 0.09033376 -0.80900002
0.082045101 0.09033376 -0.80900002
0.083573349 0.09033376 -0.80900002
0.08510159 0.09033376 -0.80900002
0.086629838 0.09033376 -0.80900002
0.088376023 0.090557083 -0.81099999
0.089908049 0.090557083 -0.81099999
0.091440067 0.090557083 -0.81099999
0.092972092 0.090557083 -0.81099999
0.094504118 0.090557083 -0.81099999
0.0074089277 0.091912039 -0.83700001
0.0089900661 0.091912039 -0.83700001
0.010571205 0.091912039 -0.83700001
0.012123306 0.09169241 -0.83499998
0.013700667 0.09169241 -0.83499998
0.015278027 0.09169241 -0.83499998
0.016855389 0.09169241 -0.83499998
0.018388599 0.09147279 -0.833
0.019962182 0.09147279 -0.833
0.021535764 0.09147279 -0.833
0.023109347 0.09147279 -0.833
0.02468293 0.09147279 -0.833
0.02619347 0.091253169 -0.83099997
0.027763275 0.091253169 -0.83099997
0.029333079 0.091253169 -0.83099997
0.030828509 0.091033548 -0.829
0.032394536 0.091033548 -0.829
0.033960562 0.091033548 -0.829
0.035526589 0.091033548 -0.829
0.037092615 0.091033548 -0.829
0.038565379 0.090813927 -0.82700002
0.040127628 0.090813927 -0.82700002
0.041689873 0.090813927 -0.82700002
0.043147519 0.090594299 -0.82499999
0.044705991 0.090594299 -0.82499999
0.046152305 0.090374678 -0.82300001
0.047706999 0.090374678 -0.82300001
0.049141977 0.090155058 -0.82099998
0.05069289 0.090155058 -0.82099998
0.052116536 0.089935437 -0.81900001
0.053663671 0.089935437 -0.81900001
0.05521081 0.089935437 -0.81900001
0.056757946 0.089935437 -0.81900001
0.058305081 0.089935437 -0.81900001
0.059852216 0.089935437 -0.81900001
0.061399352 0.089935437 -0.81900001
0.062792771 0.089715809 -0.81699997
0.064336129 0.089715809 -0.81699997
0.065879487 0.089715809 -0.81699997
0.067422844 0.089715809 -0.81699997
0.068797372 0.089496188 -0.815
0.070336953 0.089496188 -0.815
0.071876533 0.089496188 -0.815
0.073235951 0.089276567 -0.81300002
0.074771754 0.089276567 -0.81300002
0.076307558 0.089276567 -0.81300002
0.077651858 0.089056946 -0.81099999
0.079183884 0.089056946 -0.81099999
0.08071591 0.089056946 -0.81099999
0.082247928 0.089056946 -0.81099999
0.083779953 0.089056946 -0.81099999
0.085311979 0.089056946 -0.81099999
0.086843997 0.089056946 -0.81099999
0.088376023 0.089056946 -0.81099999
0.089908049 0.089056946 -0.81099999
0.091440067 0.089056946 -0.81099999
0.092972092 0.089056946 -0.81099999
0.09473718 0.089276567 -0.81300002
0.013700667 0.090147883 -0.83499998
0.015278027 0.090147883 -0.83499998
0.016855389 0.090147883 -0.83499998
0.018432749 0.090147883 -0.83499998
0.023109347 0.089931957 -0.833
0.02468293 0.089931957 -0.833
0.026256513 0.089931957 -0.833
0.027830096 0.089931957 -0.833
0.029333079 0.089716032 -0.83099997
0.030902883 0.089716032 -0.83099997
0.032472689 0.089716032 -0.83099997
0.034042493 0.089716032 -0.83099997
0.035526589 0.089500114 -0.829
0.037092615 0.089500114 -0.829
0.038658641 0.089500114 -0.829
0.040224668 0.089500114 -0.829
