# .PCD v0.7 - Point Cloud Data file format
VERSION 0.7
FIELDS x y z
SIZE 4 4 4
TYPE F F F
COUNT 1 1 1
WIDTH 1488
HEIGHT 1
VIEWPOINT 0 0 0 1 0 0 0
POINTS 1488
DATA ascii
0.14709941 0.35853487 -1.1120001
0.1520716 0.3585349 -1.1120002
0.15704376 0.35853487 -1.1120001
0.16201596 0.3585349 -1.1120002
0.16997144 0.35853487 -1.1120001
0.17295474 0.35853487 -1.1120001
0.17593805 0.35853487 -1.1120001
0.19383791 0.35853487 -1.1120001
0.19781566 0.3585349 -1.1120002
-0.32128018 0.36452365 -1.1120001
-0.31730247 0.36452365 -1.1120002
-0.31233025 0.36452365 -1.1120001
-0.30735809 0.36452365 -1.1120002
-0.3023859 0.36452365 -1.1120001
-0.29741371 0.36452365 -1.1120002
-0.29211009 0.36385822 -1.1120002
-0.28796655 0.36402458 -1.1120001
-0.28249717 0.36452365 -1.1120001
-0.27752501 0.36452365 -1.1120002
-0.26260844 0.36452365 -1.1120001
-0.25763628 0.36452365 -1.1120002
-0.25266409 0.36452365 -1.1120001
-0.24769187 0.36452365 -1.1120002
-0.24271971 0.36452365 -1.1120001
-0.23774752 0.36452365 -1.1120002
-0.23277533 0.36452365 -1.1120001
-0.22979201 0.36452365 -1.1120001
-0.22283095 0.36252737 -1.1120001
-0.21785878 0.36252737 -1.1120002
-0.21388103 0.36252737 -1.1120001
-0.20592554 0.36252737 -1.1120001
-0.20294222 0.36252737 -1.1120001
-0.19797003 0.36252737 -1.1120002
-0.19200343 0.36252737 -1.1120002
-0.18703124 0.36252737 -1.1120001
-0.18205908 0.36252737 -1.1120002
-0.17708689 0.36252737 -1.1120001
-0.16117591 0.36252737 -1.1120001
-0.15719816 0.36252737 -1.1120001
-0.15222597 0.36252737 -1.1120002
-0.14725378 0.36252737 -1.1120001
-0.13730943 0.36452365 -1.1120001
-0.13233726 0.36452365 -1.1120002
-0.11642627 0.36252737 -1.1120001
-0.11244853 0.36252737 -1.1120002
-0.10776629 0.36350542 -1.115
-0.1027807 0.36350545 -1.115
-0.097795099 0.36350542 -1.115
-0.092809513 0.36350545 -1.115
-0.087823905 0.36350542 -1.115
-0.082838312 0.36350545 -1.115
-0.077852711 0.36350542 -1.115
-0.072867118 0.36350545 -1.115
-0.067881525 0.36350542 -1.115
-0.062895924 0.36350545 -1.115
-0.057910331 0.36350542 -1.115
-0.052924737 0.36350545 -1.115
-0.04793914 0.36350542 -1.115
-0.042953543 0.36350545 -1.115
-0.037967946 0.36350542 -1.115
-0.032982349 0.36350545 -1.115
-0.026999634 0.36350545 -1.115
-0.022014037 0.36350542 -1.115
-0.012042845 0.36350542 -1.115
-0.0070572486 0.36350545 -1.115
-0.0010745324 0.36350542 -1.115
0.0029139449 0.36350545 -1.115
0.0078995414 0.36350542 -1.115
0.011888019 0.36350542 -1.115
0.017870735 0.36350542 -1.115
0.02285633 0.36350545 -1.115
0.027841926 0.36350542 -1.115
0.032827523 0.36350545 -1.115
0.042798713 0.36350545 -1.115
0.04778431 0.36350542 -1.115
0.05077567 0.36350542 -1.115
0.073709413 0.36350542 -1.115
0.077697895 0.36350542 -1.115
0.082683489 0.36350545 -1.115
0.098372005 0.36053112 -1.1120001
0.10234975 0.36053115 -1.1120002
0.10732193 0.36053112 -1.1120001
0.11229412 0.36053115 -1.1120002
0.1172663 0.36053112 -1.1120001
0.1223502 0.36085534 -1.1130002
0.12738092 0.36101747 -1.1135001
0.13230352 0.36085534 -1.1130002
0.13752505 0.36150378 -1.115
0.14251065 0.36150378 -1.115
0.14749625 0.36150378 -1.115
0.15248184 0.36150378 -1.115
0.15746742 0.36150378 -1.115
0.16245304 0.36150378 -1.115
0.16743863 0.36150378 -1.115
0.17242423 0.36150378 -1.115
0.17740983 0.36150378 -1.115
0.18223006 0.36117956 -1.1140001
0.18787131 0.36053115 -1.1120002
0.19336373 0.36150378 -1.115
0.1973522 0.36150378 -1.115
-0.32613543 0.36951035 -1.115
-0.32185715 0.36817992 -1.1140001
-0.31716132 0.36750871 -1.115
-0.31217575 0.36750874 -1.115
-0.30818728 0.36750871 -1.115
-0.30220458 0.36750874 -1.115
-0.29721895 0.36750871 -1.115
-0.29223335 0.36750874 -1.115
-0.28724778 0.36750871 -1.115
-0.27727658 0.36750871 -1.115
-0.27229095 0.36750874 -1.115
-0.26730537 0.36850953 -1.115
-0.26281834 0.36800909 -1.115
-0.25733417 0.36750871 -1.115
-0.2523486 0.36750874 -1.115
-0.247363 0.36750871 -1.115
-0.2423774 0.36750874 -1.115
-0.2373918 0.36750871 -1.115
-0.23340333 0.36750871 -1.115
-0.2274206 0.36550707 -1.115
-0.22243503 0.36550707 -1.115
-0.21744943 0.36550707 -1.115
-0.21246383 0.36550707 -1.115
-0.20747823 0.36550707 -1.115
-0.20249264 0.36550707 -1.115
-0.19750702 0.36550707 -1.115
-0.19252144 0.36550707 -1.115
-0.18753582 0.36550707 -1.115
-0.18255024 0.36550707 -1.115
-0.17756465 0.36550707 -1.115
-0.17257905 0.36550707 -1.115
-0.16759345 0.36550707 -1.115
-0.16260785 0.36550707 -1.115
-0.15762225 0.36550707 -1.115
-0.15263666 0.36550707 -1.115
-0.14765108 0.36550707 -1.115
-0.14266548 0.36550707 -1.115
-0.13767987 0.36750871 -1.115
-0.12770867 0.36550707 -1.115
-0.12272309 0.36550707 -1.115
-0.11773749 0.36550707 -1.115
-0.11374901 0.36550707 -1.115
0.14756112 0.35326704 -1.108
-0.19131278 0.35923424 -1.108
-0.18834019 0.35923424 -1.108
-0.10609888 0.35923424 -1.108
-0.10213544 0.35923427 -1.108
-0.097181141 0.35923424 -1.108
-0.092226848 0.35923427 -1.108
-0.087272555 0.35923424 -1.108
-0.082318261 0.35923427 -1.108
-0.077363953 0.35923424 -1.108
-0.07240966 0.35923427 -1.108
-0.067455366 0.35923424 -1.108
-0.062501073 0.35923427 -1.108
-0.057546772 0.35923424 -1.108
-0.052592471 0.35923427 -1.108
-0.047638178 0.35923424 -1.108
-0.042683881 0.35923427 -1.108
-0.037729584 0.35923424 -1.108
-0.03277529 0.35923427 -1.108
-0.027820989 0.35923424 -1.108
-0.022866694 0.35923427 -1.108
-0.017912395 0.35923424 -1.108
-0.012462668 0.35873699 -1.108
-0.0070129428 0.35823971 -1.108
-0.0020586457 0.35823971 -1.108
0.0028956509 0.35823974 -1.108
0.0078499475 0.35923424 -1.108
0.012804246 0.35823971 -1.108
0.017758541 0.35823971 -1.108
0.023208268 0.35873696 -1.108
0.027667135 0.35823971 -1.108
0.032621428 0.35923427 -1.108
0.037575725 0.35923424 -1.108
0.042530023 0.35923427 -1.108
0.047814608 0.35857123 -1.108
0.052438617 0.35823974 -1.108
0.05739291 0.35823971 -1.108
0.061851785 0.35873699 -1.108
0.067301504 0.35923424 -1.108
0.072255805 0.35923427 -1.108
0.077210099 0.35923424 -1.108
0.082164399 0.35923427 -1.108
0.087118693 0.35823971 -1.108
0.092072994 0.35823974 -1.108
0.097522721 0.35774246 -1.108
0.10297244 0.35625064 -1.108
0.10792674 0.35625064 -1.108
0.11288103 0.35625064 -1.108
0.11783534 0.35625064 -1.108
0.12245935 0.35591912 -1.108
0.12814027 0.35605177 -1.108
0.13236795 0.35591912 -1.108
0.13804887 0.35605174 -1.108
0.14260682 0.35525611 -1.108
0.14756113 0.35525614 -1.108
0.15251541 0.35525611 -1.108
0.15746972 0.35525614 -1.108
0.162424 0.35525611 -1.108
0.16698197 0.35605174 -1.108
0.17233261 0.35525611 -1.108
0.17768323 0.35605174 -1.108
0.1822412 0.35724518 -1.108
0.18719551 0.35724518 -1.108
0.19115894 0.35724518 -1.108
0.1971041 0.35525614 -1.108
-0.32606965 0.36321238 -1.108
-0.32210624 0.36221784 -1.108
-0.3171519 0.36122331 -1.108
-0.31219766 0.36122331 -1.108
-0.30724335 0.36122331 -1.108
-0.30228904 0.36122331 -1.108
-0.29733473 0.36122331 -1.108
-0.29337132 0.36122331 -1.108
-0.28643528 0.36122331 -1.108
-0.28247187 0.36122331 -1.108
-0.27751756 0.36122331 -1.108
-0.27216694 0.36201894 -1.108
-0.26760897 0.36221784 -1.108
-0.2631501 0.36172059 -1.108
-0.25770038 0.36122331 -1.108
-0.25274608 0.36122331 -1.108
-0.24779177 0.36122331 -1.108
-0.24283747 0.36122331 -1.108
-0.23788318 0.36122331 -1.108
-0.23292887 0.36122331 -1.108
-0.22698371 0.36122331 -1.108
-0.21112996 0.36122331 -1.108
-0.20815739 0.36122331 -1.108
-0.17248645 0.36122331 -1.108
-0.16753215 0.36122331 -1.108
-0.16356871 0.36122331 -1.108
-0.14276066 0.36122331 -1.108
-0.13780637 0.36122331 -1.108
-0.13285208 0.36122331 -1.108
-0.12789778 0.36122331 -1.108
-0.12294348 0.36122331 -1.108
-0.11898004 0.36122331 -1.108
-0.32408795 0.36520147 -1.108
0.098383501 0.34905872 -1.1010001
0.10232189 0.34905872 -1.1010001
0.1072449 0.34905872 -1.1010001
0.11216789 0.34905872 -1.1010001
0.11709088 0.34905872 -1.1010001
0.12299848 0.34905872 -1.1010001
0.12792146 0.34905872 -1.1010001
0.13087527 0.34905872 -1.1010001
0.13776746 0.34905872 -1.1010001
0.14229664 0.34787282 -1.1010001
0.14761347 0.34708223 -1.1010001
0.15253645 0.34757635 -1.1010001
0.15745947 0.34807047 -1.1010001
0.16238247 0.34708223 -1.1010001
0.17222846 0.34905872 -1.1010001
0.17715144 0.34905872 -1.1010001
0.18207446 0.34905872 -1.1010001
0.18847434 0.34856459 -1.1010001
0.19290504 0.34708223 -1.1010001
0.19782804 0.34708223 -1.1010001
-0.32007125 0.35498822 -1.1010001
-0.31711745 0.35498822 -1.1010001
-0.31219447 0.35498822 -1.1010001
-0.30136383 0.35498822 -1.1010001
-0.29742545 0.35498822 -1.1010001
-0.29250246 0.35498822 -1.1010001
-0.28265646 0.35498822 -1.1010001
-0.27773345 0.35498822 -1.1010001
-0.27477968 0.35498822 -1.1010001
-0.25213388 0.35498822 -1.1010001
-0.24721089 0.35498822 -1.1010001
-0.24228787 0.35498822 -1.1010001
-0.23736489 0.35498822 -1.1010001
-0.2324419 0.35498822 -1.1010001
-0.2275189 0.35399997 -1.1010001
-0.2225959 0.35301173 -1.1010001
-0.21767293 0.35301173 -1.1010001
-0.21373451 0.35301173 -1.1010001
-0.20782694 0.35498822 -1.1010001
-0.20191932 0.35301173 -1.1010001
-0.19798093 0.35301173 -1.1010001
-0.19207333 0.35301173 -1.1010001
-0.18715033 0.35301173 -1.1010001
-0.18222734 0.35301173 -1.1010001
-0.17730433 0.35301173 -1.1010001
-0.17238134 0.35367057 -1.1010001
-0.16745836 0.35498822 -1.1010001
-0.16253535 0.35498822 -1.1010001
-0.15761235 0.35399997 -1.1010001
-0.12512057 0.35498822 -1.1010001
-0.12315137 0.35498822 -1.1010001
-0.10542858 0.35498822 -1.1010001
-0.10345937 0.35498822 -1.1010001
-0.097551778 0.35301173 -1.1010001
-0.092628777 0.35301173 -1.1010001
-0.087705791 0.35301173 -1.1010001
-0.08278279 0.35301173 -1.1010001
-0.077859789 0.35301173 -1.1010001
-0.072936796 0.35301173 -1.1010001
-0.068013802 0.35301173 -1.1010001
-0.056198604 0.35498822 -1.1010001
-0.053244807 0.35498822 -1.1010001
-0.047337212 0.35301173 -1.1010001
-0.042414218 0.35301173 -1.1010001
-0.037491217 0.35301173 -1.1010001
-0.03256822 0.35301173 -1.1010001
-0.027645225 0.35301173 -1.1010001
-0.022722227 0.35301173 -1.1010001
-0.01779923 0.35301173 -1.1010001
-0.012876234 0.35301173 -1.1010001
-0.0079532359 0.35301173 -1.1010001
-0.0030302394 0.35301173 -1.1010001
0.0028773574 0.35301173 -1.1010001
0.0078003537 0.35301173 -1.1010001
0.012723351 0.35301173 -1.1010001
0.017646346 0.35301173 -1.1010001
0.022630841 0.35397363 -1.1040001
0.027567253 0.35397363 -1.1040001
0.032503664 0.35397363 -1.1040001
0.037440076 0.35397363 -1.1040001
0.042724267 0.35279828 -1.1028001
0.047248617 0.35250443 -1.1025001
0.05217832 0.35250443 -1.1025002
0.057683241 0.35221061 -1.1022002
0.062448449 0.35279828 -1.1028
0.067539975 0.35221061 -1.1022002
0.07231053 0.35279828 -1.1028
0.077812783 0.35250443 -1.1025
0.082742482 0.35250443 -1.1025001
0.087672196 0.35250443 -1.1025
0.092601895 0.35250443 -1.1025001
0.097620964 0.35282326 -1.1035001
0.1026007 0.35199171 -1.1040001
0.10753711 0.35199174 -1.1040001
0.11247353 0.35199171 -1.1040001
0.11740994 0.35199174 -1.1040001
0.12234634 0.35199171 -1.1040001
0.12728275 0.35199174 -1.1040001
0.13254826 0.35133108 -1.1040001
0.13666193 0.35149625 -1.1040001
0.14209199 0.35199171 -1.1040001
0.1470284 0.35080257 -1.1040001
0.15295209 0.35119897 -1.1040001
0.1578885 0.35199171 -1.1040001
0.16282493 0.35100079 -1.1040001
0.16776133 0.35100076 -1.1040001
0.17269772 0.35199174 -1.1040001
0.17763415 0.35199171 -1.1040001
0.18257056 0.35298264 -1.1040001
0.18750697 0.35298264 -1.1040001
0.19244339 0.35199171 -1.1040001
0.1973798 0.35100079 -1.1040001
-0.32741022 0.35745108 -1.1025001
-0.32296079 0.35834107 -1.1028001
-0.31699425 0.35793743 -1.1040001
-0.31205785 0.3579374 -1.1040001
-0.30712146 0.35793743 -1.1040001
-0.302185 0.3579374 -1.1040001
-0.2972486 0.35793743 -1.1040001
-0.2923122 0.3579374 -1.1040001
-0.28777072 0.35714465 -1.1040001
-0.28243935 0.3579374 -1.1040001
-0.27750298 0.35793743 -1.1040001
-0.27219754 0.35745108 -1.1025001
-0.26788747 0.35696474 -1.1010001
-0.26296449 0.35696477 -1.1010001
-0.25752205 0.35761318 -1.1030002
-0.25282091 0.3579374 -1.1040001
-0.2478845 0.35793743 -1.1040001
-0.24294809 0.3579374 -1.1040001
-0.23801169 0.35793743 -1.1040001
-0.23208797 0.35793743 -1.1040001
-0.22682248 0.35727677 -1.1040001
-0.22221516 0.35694644 -1.1040001
-0.21727875 0.35694647 -1.1040001
-0.21273725 0.35714462 -1.1040001
-0.20740592 0.3579374 -1.1040001
-0.20246951 0.35694647 -1.1040001
-0.1975331 0.35694647 -1.1040001
-0.1929916 0.35674825 -1.1040001
-0.18766028 0.35595551 -1.1040001
-0.18272386 0.35694647 -1.1040001
-0.17778745 0.35694644 -1.1040001
-0.17324595 0.35714465 -1.1040001
-0.16791463 0.3579374 -1.1040001
-0.16297822 0.35793743 -1.1040001
-0.15665962 0.35714465 -1.1040001
-0.15211812 0.35694647 -1.1040001
-0.14718169 0.35694644 -1.1040001
-0.14224529 0.35694647 -1.1040001
-0.1373089 0.35694644 -1.1040001
-0.13237247 0.35694647 -1.1040001
-0.12783097 0.35714462 -1.1040001
-0.12249965 0.3579374 -1.1040001
-0.11756324 0.35793743 -1.1040001
-0.11262682 0.3579374 -1.1040001
-0.10867769 0.3579374 -1.1040001
-0.10176672 0.35595551 -1.1040001
-0.097817592 0.35595554 -1.1040001
-0.09288118 0.35595551 -1.1040001
-0.087944768 0.35595554 -1.1040001
-0.08202108 0.35595554 -1.1040001
-0.077084661 0.35595551 -1.1040001
-0.072148249 0.35595554 -1.1040001
-0.067211837 0.35595551 -1.1040001
-0.062275432 0.35595554 -1.1040001
-0.0583263 0.35595551 -1.1040001
-0.050428044 0.35595551 -1.1040001
-0.047466196 0.35595551 -1.1040001
-0.042529788 0.35595554 -1.1040001
-0.037593372 0.35595551 -1.1040001
-0.032656964 0.35595554 -1.1040001
-0.027720552 0.35595551 -1.1040001
-0.022784142 0.35595554 -1.1040001
-0.01784773 0.35595551 -1.1040001
-0.0138986 0.35595551 -1.1040001
0.0078216083 0.35595551 -1.1040001
0.02164356 0.35595551 -1.1040001
0.032503664 0.35595554 -1.1040001
0.037440076 0.35595551 -1.1040001
0.042376488 0.35595554 -1.1040001
0.046325617 0.35595551 -1.1040001
0.063109413 0.35595551 -1.1040001
0.067058541 0.35595551 -1.1040001
0.071994953 0.35595554 -1.1040001
0.077918649 0.35595554 -1.1040001
0.082855061 0.35595551 -1.1040001
0.14217207 0.34385192 -1.097
0.14707717 0.34385192 -1.097
0.15198229 0.34385192 -1.097
0.15786843 0.34385192 -1.097
0.16179252 0.34385192 -1.097
0.18926114 0.34385192 -1.097
0.19220421 0.34385192 -1.097
0.19710931 0.34385192 -1.097
-0.22767334 0.34975988 -1.097
-0.22276823 0.34975991 -1.097
-0.21786311 0.34975988 -1.097
-0.21393903 0.34975988 -1.097
-0.18745142 0.34975991 -1.097
-0.18254632 0.34975988 -1.097
-0.086406127 0.34975988 -1.097
-0.082482032 0.34975988 -1.097
-0.077576928 0.34975991 -1.097
-0.072671816 0.34975988 -1.097
-0.067766696 0.34975991 -1.097
-0.037355009 0.34975988 -1.097
-0.032449901 0.34975991 -1.097
-0.027544789 0.34975988 -1.097
-0.022639677 0.34975991 -1.097
-0.017734565 0.34975988 -1.097
-0.010867408 0.34975988 -1.097
-0.0079243416 0.34975988 -1.097
-0.0049812747 0.34975988 -1.097
0.0038479259 0.34975988 -1.097
0.0077720149 0.34975988 -1.097
0.012677126 0.34975991 -1.097
0.017909244 0.34910345 -1.097
0.02248735 0.34975991 -1.097
0.02739246 0.34975988 -1.097
0.032297574 0.34975991 -1.097
0.040145751 0.34975988 -1.097
0.059766199 0.34779057 -1.097
0.062709264 0.34779057 -1.097
0.067614377 0.34779057 -1.097
0.072519489 0.34779057 -1.097
0.077424601 0.34779057 -1.097
0.082329705 0.34779057 -1.097
0.087234825 0.34779057 -1.097
0.09213993 0.34779057 -1.097
0.095082998 0.34779057 -1.097
0.1039122 0.34582123 -1.097
0.10783629 0.34582123 -1.097
0.11274141 0.34582123 -1.097
0.11764651 0.34582123 -1.097
0.12255162 0.34582123 -1.097
0.12745672 0.34582123 -1.097
0.13236186 0.34582123 -1.097
0.13726696 0.34582123 -1.097
0.16767864 0.34582123 -1.097
0.17258376 0.34582123 -1.097
0.17748886 0.34582123 -1.097
0.18239397 0.34582123 -1.097
0.18631807 0.34582123 -1.097
-0.3277376 0.35369852 -1.097
-0.32283249 0.35369855 -1.097
-0.31792736 0.35172921 -1.097
-0.31302226 0.35172924 -1.097
-0.30713612 0.3530421 -1.097
-0.30321205 0.35369852 -1.097
-0.2924208 0.35172921 -1.097
-0.2875157 0.35172924 -1.097
-0.2826106 0.35172921 -1.097
-0.27868646 0.35172921 -1.097
-0.27181932 0.35369852 -1.097
-0.26789522 0.35369855 -1.097
-0.26200911 0.35369855 -1.097
-0.25710398 0.35369852 -1.097
-0.25416091 0.35369852 -1.097
-0.24729377 0.35172921 -1.097
-0.24238865 0.35172924 -1.097
-0.23748355 0.35172921 -1.097
-0.23257844 0.35172924 -1.097
-0.22865435 0.35172921 -1.097
-0.21099596 0.35172921 -1.097
-0.20707187 0.35172924 -1.097
-0.20314778 0.35172921 -1.097
-0.16783099 0.35172924 -1.097
-0.16292587 0.35172921 -1.097
-0.15900177 0.35172921 -1.097
-0.15213463 0.35172924 -1.097
-0.14722951 0.35172921 -1.097
-0.13840032 0.35172921 -1.097
-0.12662804 0.35172921 -1.097
-0.12221345 0.35222155 -1.097
-0.11779884 0.35369852 -1.097
-0.11289372 0.35369855 -1.097
-0.10798861 0.35369852 -1.097
-0.10210247 0.35172921 -1.097
-0.097197369 0.35172921 -1.097
-0.062861584 0.35172921 -1.097
-0.057956479 0.35172924 -1.097
-0.052070346 0.35172924 -1.097
0.18874356 0.33898368 -1.0940001
0.19265692 0.33898371 -1.0940001
0.19754861 0.33898368 -1.0940001
0.0087291002 0.34487551 -1.0940001
0.012642458 0.34487551 -1.0940001
0.017534155 0.34487551 -1.0940001
0.022425853 0.34487551 -1.0940001
0.042970981 0.34487551 -1.0940001
0.047862679 0.34487551 -1.0940001
0.052754376 0.34487551 -1.0940001
0.057646077 0.34487551 -1.0940001
0.062537767 0.34487551 -1.0940001
0.067429468 0.34487551 -1.0940001
0.072321162 0.34487551 -1.0940001
0.077212863 0.34487551 -1.0940001
0.082104549 0.34487551 -1.0940001
0.08699625 0.34487551 -1.0940001
0.093257621 0.34408996 -1.0940001
0.09775798 0.34389353 -1.0940001
0.10216051 0.34340256 -1.0940001
0.10754138 0.34291157 -1.0940001
0.11243308 0.34192961 -1.0940001
0.11699867 0.34225696 -1.0940001
0.12221646 0.34291157 -1.0940001
0.12710817 0.34291157 -1.0940001
0.13199988 0.34291157 -1.0940001
0.13786991 0.34192961 -1.0940001
0.1427616 0.34094763 -1.0940001
0.14765331 0.34094763 -1.0940001
0.15254501 0.34094763 -1.0940001
0.1574367 0.34094763 -1.0940001
0.1626545 0.3416023 -1.0940001
0.16722009 0.34192961 -1.0940001
0.17211178 0.34192961 -1.0940001
0.17700349 0.34192961 -1.0940001
0.18287353 0.34192961 -1.0940001
0.18743911 0.3416023 -1.0940001
0.19265692 0.34094763 -1.0940001
0.19754861 0.34094763 -1.0940001
-0.33173302 0.34880337 -1.0940001
-0.325863 0.34880337 -1.0940001
-0.32292795 0.34880337 -1.0940001
-0.31754708 0.34831241 -1.0940001
-0.31255755 0.34801778 -1.0940001
-0.30727452 0.34880337 -1.0940001
-0.30238283 0.34880337 -1.0940001
-0.29846948 0.34880337 -1.0940001
-0.29162109 0.34880337 -1.0940001
-0.28770775 0.34880337 -1.0940001
-0.28281605 0.34782141 -1.0940001
-0.27825049 0.34814876 -1.0940001
-0.27401102 0.34880337 -1.0940001
-0.25542256 0.34880337 -1.0940001
-0.25248754 0.34880337 -1.0940001
-0.24759583 0.34880337 -1.0940001
-0.24270414 0.34880337 -1.0940001
-0.23781244 0.34880337 -1.0940001
-0.23292074 0.34880337 -1.0940001
-0.22851822 0.34733042 -1.0940001
-0.22215901 0.34683943 -1.0940001
-0.2172673 0.34683943 -1.0940001
-0.21188645 0.34733042 -1.0940001
-0.20748392 0.34782141 -1.0940001
-0.20298354 0.34801781 -1.0940001
-0.19770053 0.34880337 -1.0940001
-0.19280884 0.34880337 -1.0940001
-0.17715541 0.34880337 -1.0940001
-0.17226371 0.34880337 -1.0940001
-0.16737202 0.34880337 -1.0940001
-0.16248031 0.34880337 -1.0940001
-0.15719728 0.34801781 -1.0940001
-0.15269691 0.34880337 -1.0940001
-0.14741389 0.34801781 -1.0940001
-0.14291352 0.34880337 -1.0940001
-0.13802183 0.34880337 -1.0940001
-0.13215178 0.34880337 -1.0940001
-0.12726009 0.34880337 -1.0940001
-0.12197705 0.34801781 -1.0940001
-0.11747669 0.34880337 -1.0940001
-0.11258499 0.34880337 -1.0940001
-0.1076933 0.34880337 -1.0940001
-0.10280161 0.34880337 -1.0940001
-0.097909898 0.34880337 -1.0940001
-0.093018204 0.34880337 -1.0940001
-0.087637335 0.34733042 -1.0940001
-0.082256466 0.34683943 -1.0940001
-0.077364773 0.34683943 -1.0940001
-0.072473079 0.34683943 -1.0940001
-0.067581378 0.34683943 -1.0940001
-0.062689684 0.34880337 -1.0940001
-0.058189321 0.34801778 -1.0940001
-0.052906286 0.34880337 -1.0940001
-0.047623254 0.34801778 -1.0940001
-0.042144552 0.34782141 -1.0940001
-0.037252855 0.34683943 -1.0940001
-0.032361157 0.34683943 -1.0940001
-0.027469458 0.34683943 -1.0940001
-0.022577761 0.34683943 -1.0940001
-0.017686063 0.34683943 -1.0940001
-0.013185704 0.34762502 -1.0940001
-0.0079026707 0.34683943 -1.0940001
-0.0026196376 0.34762502 -1.0940001
0.0023698937 0.34733042 -1.0940001
0.0077507608 0.34683943 -1.0940001
0.012642458 0.34683943 -1.0940001
0.016555816 0.34683943 -1.0940001
0.022425853 0.34683943 -1.0940001
0.02731755 0.34683943 -1.0940001
0.032209247 0.34683943 -1.0940001
0.037100945 0.34782141 -1.0940001
0.041992646 0.34683943 -1.0940001
0.047862679 0.34683943 -1.0940001
0.052754376 0.34683943 -1.0940001
0.056667734 0.34683943 -1.0940001
-0.32781968 0.35076731 -1.0940001
-0.32292795 0.35076731 -1.0940001
-0.31999296 0.35076731 -1.0940001
-0.3062962 0.35076731 -1.0940001
-0.30238286 0.35076731 -1.0940001
-0.29749113 0.35076731 -1.0940001
-0.29455614 0.35076731 -1.0940001
-0.27303267 0.35076731 -1.0940001
-0.26716262 0.35076731 -1.0940001
-0.26227093 0.35076731 -1.0940001
-0.25737923 0.35076731 -1.0940001
-0.25248754 0.35076731 -1.0940001
-0.24955252 0.35076731 -1.0940001
-0.14291352 0.35076731 -1.0940001
-0.13802183 0.35076731 -1.0940001
-0.13215178 0.35076731 -1.0940001
-0.12823842 0.35076731 -1.0940001
-0.11747669 0.35076731 -1.0940001
-0.11258499 0.35076731 -1.0940001
-0.1076933 0.35076731 -1.0940001
-0.10475828 0.35076731 -1.0940001
0.12921111 0.33486333 -1.087
0.13212734 0.33486333 -1.087
0.13601565 0.33486333 -1.087
0.14282022 0.33291197 -1.0870001
0.14768061 0.33291197 -1.087
0.15254101 0.33291197 -1.0870001
0.15740141 0.33291197 -1.087
0.16226181 0.33291197 -1.0870001
0.16712222 0.33291197 -1.087
0.17198262 0.33421287 -1.0870001
0.17781508 0.33291197 -1.0870001
0.1817034 0.33291197 -1.087
0.18753588 0.33291197 -1.0870001
0.19142419 0.33291197 -1.087
-0.32961044 0.33876607 -1.087
-0.31891757 0.33876607 -1.087
-0.046735287 0.33876607 -1.087
-0.04284697 0.33876607 -1.087
-0.039930727 0.33876607 -1.087
-0.031182013 0.33876607 -1.087
-0.010768344 0.33876607 -1.087
-0.0078521054 0.33876607 -1.087
-0.0029917075 0.33876607 -1.0870001
0.0028407695 0.33876607 -1.0870001
0.0077011669 0.33876607 -1.087
0.012958405 0.33817253 -1.0876001
0.017446004 0.33825785 -1.0885
0.02179632 0.33827823 -1.087
0.027142758 0.33876607 -1.087
0.032003157 0.33876607 -1.0870001
0.037835632 0.33876607 -1.0870001
0.042696029 0.33876607 -1.087
0.047556426 0.33876607 -1.0870001
0.052416824 0.33876607 -1.087
0.057331704 0.33907771 -1.0880001
0.062309112 0.33970103 -1.09
0.067090482 0.33825788 -1.0885001
0.072930999 0.33825785 -1.0885
0.077798098 0.33825785 -1.0885
0.082665205 0.33825788 -1.0885
0.087532312 0.33825785 -1.0885
0.092356078 0.33810204 -1.0880001
0.097132482 0.33779037 -1.087
0.10204069 0.33794624 -1.0875001
0.10755449 0.33796921 -1.0882
0.11268575 0.3368147 -1.087
0.11819666 0.33834109 -1.0894002
0.12274438 0.33872265 -1.09
0.12761819 0.33872268 -1.0900002
0.13230968 0.33825785 -1.0885
0.13729127 0.33755836 -1.0894002
0.14223963 0.33676589 -1.09
0.14711344 0.33676589 -1.0900002
0.15296201 0.33676589 -1.0900002
0.15783581 0.33676589 -1.09
0.16270964 0.33676594 -1.0900002
0.16758344 0.33676589 -1.09
0.17196988 0.33725509 -1.09
0.17733106 0.33676589 -1.09
0.18220489 0.33676589 -1.0900002
0.18675378 0.33643979 -1.09
0.19195251 0.33578753 -1.09
0.19780108 0.33578753 -1.09
-0.33052012 0.34263617 -1.09
-0.32759583 0.34263617 -1.09
-0.32272202 0.34263617 -1.0900002
-0.31763017 0.34240109 -1.0892501
-0.31254372 0.34216601 -1.0885
-0.30717656 0.34245571 -1.0888001
-0.30239224 0.34201837 -1.0870001
-0.29753181 0.34266883 -1.087
-0.29267141 0.34266886 -1.0870001
-0.28710103 0.34298405 -1.0880001
-0.28275675 0.34361455 -1.09
-0.27718818 0.34245571 -1.0888001
-0.27225775 0.34169316 -1.087
-0.26739734 0.34169313 -1.087
-0.26224244 0.34226656 -1.0882
-0.2575711 0.3418763 -1.0882
-0.25264993 0.34245571 -1.0888001
-0.2478396 0.34187633 -1.0882001
-0.24311048 0.34289026 -1.08925
-0.23791769 0.34361455 -1.09
-0.23304388 0.34361455 -1.09
-0.22719531 0.34361455 -1.09
-0.2223215 0.34361455 -1.09
-0.21744768 0.34361455 -1.09
-0.21257387 0.34361455 -1.09
-0.20741424 0.34216601 -1.0885
-0.20254713 0.34216601 -1.0885
-0.19768004 0.34216601 -1.0885
-0.19281292 0.34216601 -1.0885
-0.18768683 0.34266886 -1.0870001
-0.18282641 0.34266883 -1.087
-0.17796603 0.34266886 -1.0870001
-0.17213355 0.34266886 -1.0870001
-0.16750264 0.34314167 -1.0885
-0.16226289 0.34289029 -1.0892501
-0.1572284 0.34245571 -1.0888001
-0.15247062 0.3418763 -1.0882
-0.1474915 0.34245571 -1.0888001
-0.14323243 0.34264886 -1.0890001
-0.13751718 0.34361455 -1.09
-0.13264336 0.34361455 -1.09
-0.1271956 0.34289029 -1.0892501
-0.12272661 0.34216601 -1.0885
-0.11785951 0.34216604 -1.0885
-0.11243868 0.34245571 -1.0888001
-0.10758746 0.34149799 -1.087
-0.10214382 0.34169313 -1.087
-0.097417668 0.34216601 -1.0885
-0.092550561 0.34216604 -1.0885
-0.087683462 0.34216601 -1.0885
-0.082930475 0.34263617 -1.0900002
-0.077385873 0.34245571 -1.0888001
-0.072672099 0.3418763 -1.0882
-0.067241624 0.34216601 -1.0885
-0.06237451 0.34216601 -1.0885
-0.057507407 0.34216601 -1.0885
-0.052640304 0.34216601 -1.0885
-0.047773205 0.34216601 -1.0885
-0.041970305 0.34247944 -1.0895001
-0.037065569 0.34216601 -1.0885
-0.032227151 0.34247944 -1.0895002
-0.02733136 0.34216601 -1.0885
-0.022464257 0.34216601 -1.0885
-0.01759715 0.34216601 -1.0885
-0.012735 0.34232271 -1.089
-0.0078737754 0.34263617 -1.09
-0.0029981069 0.34232277 -1.0890001
0.0028481972 0.34247947 -1.0895002
0.0073975003 0.34231004 -1.09
0.012596233 0.34165782 -1.09
0.017470043 0.34165779 -1.09
0.022343855 0.34165782 -1.09
0.027217668 0.34263617 -1.09
0.032091483 0.3426362 -1.0900002
0.037940051 0.34263617 -1.0900002
0.042813867 0.34165779 -1.09
0.047687676 0.34165782 -1.09
0.052561488 0.34165779 -1.09
0.0574353 0.34165782 -1.09
0.062309112 0.34165779 -1.09
0.067182928 0.34165782 -1.09
0.0730315 0.34165782 -1.09
0.077905312 0.34165779 -1.09
0.082779124 0.34165782 -1.09
0.087652937 0.34165779 -1.09
0.090577222 0.34165779 -1.09
-0.33052012 0.34557131 -1.09
-0.32759583 0.34654969 -1.09
-0.32272202 0.34557134 -1.09
-0.31784821 0.34557131 -1.09
-0.30712581 0.34557134 -1.09
-0.30225199 0.34557131 -1.09
-0.2968908 0.34606048 -1.09
-0.2928293 0.34622356 -1.09
-0.28763056 0.34557134 -1.09
-0.27593341 0.34557131 -1.09
-0.27154699 0.34606051 -1.09
-0.26716053 0.34654969 -1.09
-0.26228678 0.34654969 -1.0900002
-0.25741291 0.34654969 -1.09
-0.25253913 0.34557134 -1.09
-0.24766532 0.34557131 -1.09
-0.2427915 0.34557134 -1.09
-0.23791769 0.34557131 -1.09
-0.23304388 0.34557134 -1.09
-0.19795243 0.34557134 -1.09
-0.19210386 0.34557134 -1.09
-0.18723005 0.34557131 -1.09
-0.18235624 0.34557134 -1.09
-0.17748243 0.34557131 -1.09
-0.17260861 0.34557134 -1.09
-0.1677348 0.34557131 -1.09
-0.16286099 0.34557134 -1.09
-0.15896194 0.34557131 -1.09
-0.15213861 0.34557131 -1.09
-0.14921431 0.34557131 -1.09
-0.14239098 0.34557131 -1.09
-0.13751718 0.34557134 -1.09
-0.13264336 0.34557131 -1.09
-0.12776956 0.34557134 -1.09
-0.12387049 0.34557131 -1.09
-0.11704716 0.34557131 -1.09
-0.11217335 0.34557134 -1.09
-0.10729954 0.34557131 -1.09
-0.10242572 0.34557134 -1.09
-0.097551912 0.34557131 -1.09
-0.0926781 0.34557134 -1.09
-0.062460467 0.34557131 -1.09
-0.055637132 0.34557131 -1.09
-0.052712843 0.34557131 -1.09
-0.049788557 0.34557131 -1.09
0.12354992 0.32882929 -1.08
0.12644738 0.32882929 -1.08
0.13320813 0.32882929 -1.08
0.13803723 0.32882929 -1.0800002
0.14286631 0.32882929 -1.08
0.14769541 0.32882929 -1.0800002
0.15294819 0.3297427 -1.0830001
0.15779071 0.32974273 -1.0830001
0.16280499 0.32879195 -1.0820001
0.16708824 0.32801211 -1.0805001
0.17280672 0.32785988 -1.08
0.17763582 0.32785988 -1.08
0.18198201 0.32834458 -1.08
0.18729402 0.32882929 -1.08
0.19212312 0.32882929 -1.0800002
0.19791803 0.32882929 -1.0800002
-0.31782961 0.33464569 -1.0800002
-0.3120347 0.33464569 -1.0800002
-0.30720562 0.33464569 -1.08
-0.30237651 0.33464569 -1.0800002
-0.26760703 0.33464569 -1.0800002
-0.26277792 0.33464569 -1.08
-0.25794882 0.33464569 -1.0800002
-0.25215387 0.33464569 -1.0800002
-0.24732479 0.33464569 -1.08
-0.2424957 0.33464569 -1.0800002
-0.23863241 0.33464569 -1.08
-0.22511093 0.33464569 -1.08
-0.22221348 0.33464569 -1.08
-0.21738438 0.33464569 -1.0800002
-0.21255529 0.33464569 -1.08
-0.20772618 0.33464569 -1.0800002
-0.20289709 0.33464569 -1.08
-0.19806799 0.33464569 -1.0800002
-0.19227308 0.33464569 -1.0800002
-0.15750358 0.33464569 -1.0800002
-0.15267447 0.33464569 -1.08
-0.14784537 0.33464569 -1.0800002
-0.14205047 0.33464569 -1.0800002
-0.13722137 0.33464569 -1.08
-0.13239226 0.33464569 -1.0800002
-0.12756316 0.33464569 -1.08
-0.12273407 0.33464569 -1.0800002
-0.11693915 0.33464569 -1.0800002
-0.11178812 0.3339994 -1.0800002
-0.10728095 0.33367631 -1.08
-0.10245185 0.33367628 -1.08
-0.097622752 0.33367631 -1.08
-0.092793658 0.33367628 -1.08
-0.087964565 0.33367631 -1.08
-0.082169652 0.33367631 -1.08
-0.077340543 0.33367628 -1.08
-0.072511449 0.33464569 -1.0800002
-0.067682348 0.33464569 -1.08
-0.062853254 0.33464569 -1.0800002
-0.056575425 0.33416098 -1.08
-0.052229241 0.33367628 -1.08
-0.047400143 0.33367631 -1.08
-0.042571045 0.33367628 -1.08
-0.037741948 0.33367631 -1.08
-0.031947032 0.33367631 -1.08
-0.02711793 0.33367628 -1.08
-0.022675162 0.33348241 -1.08
-0.017459735 0.3327069 -1.08
-0.012147728 0.33222219 -1.08
-0.0078015393 0.33173749 -1.08
-0.0029724422 0.33173752 -1.08
0.0028246767 0.33189154 -1.0805
0.0076622008 0.33219957 -1.0815001
0.012498005 0.33219957 -1.0815002
0.017333811 0.33219957 -1.0815001
0.021669989 0.33245325 -1.08075
0.027933784 0.3327069 -1.0800002
0.032762881 0.3327069 -1.08
0.037591979 0.33173752 -1.08
0.04242108 0.33173749 -1.08
0.047250178 0.3327069 -1.0800002
0.053045094 0.33335316 -1.0800002
0.057874195 0.33367628 -1.08
0.062703297 0.3327069 -1.0800002
0.06753239 0.33173749 -1.08
0.072361492 0.33173752 -1.08
0.077190585 0.33173749 -1.08
0.082019687 0.33173752 -1.08
0.087814599 0.33173752 -1.08
0.092643701 0.33173749 -1.08
0.097472802 0.33173752 -1.08
0.1023019 0.33173749 -1.08
0.10723108 0.33204556 -1.0810001
0.11266398 0.33191326 -1.0812001
0.11737017 0.33248588 -1.0818001
0.12275437 0.33219957 -1.0815001
0.12720835 0.33172244 -1.0810001
0.13224231 0.33076808 -1.0800002
0.1370714 0.33076808 -1.08
0.17134973 0.33168688 -1.0830001
0.18297176 0.33168688 -1.0830001
0.19362529 0.33168688 -1.0830001
0.19749931 0.33168688 -1.0830001
-0.32646051 0.33751947 -1.0830001
-0.32258654 0.3375195 -1.0830001
-0.3129015 0.3375195 -1.0830001
-0.30805898 0.33751947 -1.0830001
-0.30210224 0.33730429 -1.08075
-0.2979607 0.33802408 -1.0815001
-0.29271832 0.33755392 -1.08
-0.28746805 0.33793589 -1.0806001
-0.28298721 0.33773619 -1.0812
-0.27796069 0.33773619 -1.0812
-0.27171987 0.33689618 -1.0810001
-0.26738185 0.33751947 -1.0830001
-0.26314422 0.33705199 -1.0815001
-0.25794885 0.33658451 -1.0800002
-0.25238559 0.33689618 -1.0810001
-0.24766964 0.33705199 -1.0815001
-0.24217984 0.33730429 -1.08075
-0.23748159 0.338312 -1.0818001
-0.2327088 0.33773619 -1.0812
-0.22735791 0.33802411 -1.0815001
-0.22252211 0.33802408 -1.0815001
-0.21768633 0.33802411 -1.0815001
-0.21232843 0.338312 -1.0818001
-0.20772621 0.33658451 -1.0800002
-0.20289709 0.33658451 -1.08
-0.19806799 0.33658451 -1.0800002
-0.19263093 0.33720779 -1.0820001
-0.18717527 0.338312 -1.0818
-0.18243039 0.33773619 -1.0812
-0.17750099 0.338312 -1.0818001
-0.17276147 0.33773619 -1.0812
-0.16739392 0.33802411 -1.0815001
-0.16255812 0.33802408 -1.0815001
-0.15764762 0.33689618 -1.0810001
-0.15288785 0.33705199 -1.0815001
-0.14798048 0.33689618 -1.0810001
-0.14190088 0.33792314 -1.0818001
-0.13741195 0.33802408 -1.0815001
-0.13257615 0.33802411 -1.0815001
-0.12774034 0.33802408 -1.0815001
-0.12284592 0.33689618 -1.0810001
-0.11726399 0.3375195 -1.0830001
-0.11242147 0.33751947 -1.0830001
-0.10757896 0.3375195 -1.0830001
-0.10273644 0.33751947 -1.0830001
-0.097893938 0.3375195 -1.0830001
-0.092082918 0.3375195 -1.0830001
-0.087240405 0.33751947 -1.0830001
-0.082397893 0.3375195 -1.0830001
-0.077555381 0.33751947 -1.0830001
-0.072712868 0.3375195 -1.0830001
-0.067870356 0.33751947 -1.0830001
-0.062853254 0.33658451 -1.0800002
-0.057216834 0.3375195 -1.0830001
-0.052374322 0.33751947 -1.0830001
-0.049468815 0.33751947 -1.0830001
-0.036878284 0.33751947 -1.0830001
-0.033972777 0.33751947 -1.0830001
-0.027193259 0.33751947 -1.0830001
-0.021866495 0.33703345 -1.0830001
-0.017508235 0.33654737 -1.0830001
-0.013053124 0.33635297 -1.0830001
-0.0078232102 0.33557528 -1.0830001
-0.0029806988 0.33557528 -1.0830001
0.0028303158 0.33557528 -1.0830001
0.0076728277 0.33557528 -1.0830001
0.010578335 0.33557528 -1.0830001
0.023168866 0.33557528 -1.0830001
0.02801138 0.33557528 -1.0830001
0.032853886 0.33557528 -1.0830001
0.037696403 0.33557528 -1.0830001
0.042538911 0.33557528 -1.0830001
0.047381423 0.33557528 -1.0830001
0.052223936 0.33557528 -1.0830001
0.059003457 0.33557528 -1.0830001
0.061908968 0.33557528 -1.0830001
0.14246947 0.32404903 -1.077
0.14728515 0.32404906 -1.077
0.15306398 0.32404906 -1.077
0.15691651 0.32404903 -1.077
0.17328984 0.32404903 -1.077
0.1771424 0.32404903 -1.077
0.18195808 0.32404906 -1.077
0.18773691 0.32404906 -1.077
0.19255258 0.32404903 -1.077
0.19736826 0.32404906 -1.077
-0.26108482 0.32984927 -1.077
-0.25626916 0.32984927 -1.077
-0.25241661 0.32984927 -1.077
-0.24760094 0.3298493 -1.077
-0.13106136 0.32984927 -1.077
-0.12143 0.32984927 -1.077
-0.11757745 0.32984927 -1.077
-0.11276178 0.3298493 -1.077
-0.10698296 0.3298493 -1.077
-0.10216727 0.32984927 -1.077
-0.097351596 0.3298493 -1.077
-0.092535906 0.32984927 -1.077
-0.08772023 0.3298493 -1.077
-0.081941396 0.3298493 -1.077
-0.077446759 0.3292048 -1.077
-0.07231003 0.3298493 -1.077
-0.067494348 0.32984927 -1.077
-0.062678665 0.3298493 -1.077
-0.057862982 0.32984927 -1.077
-0.053047296 0.3298493 -1.077
-0.047268473 0.3298493 -1.077
-0.04245279 0.32984927 -1.077
-0.037637107 0.3298493 -1.077
-0.032821424 0.32984927 -1.077
-0.02800574 0.3298493 -1.077
-0.021745352 0.32936591 -1.077
-0.017411236 0.32888258 -1.077
-0.012980807 0.32868925 -1.077
-0.0077798688 0.32791588 -1.077
-0.0029641851 0.32791588 -1.077
0.0031998903 0.32714254 -1.077
0.0076303184 0.32791588 -1.077
0.012446003 0.32791588 -1.077
0.017261686 0.32791588 -1.077
0.02207737 0.3292048 -1.077
0.027856192 0.3298493 -1.077
0.032671876 0.32984927 -1.077
0.037487559 0.32791588 -1.077
0.042303242 0.32791588 -1.077
0.047118928 0.32888258 -1.0770001
0.052512493 0.3290759 -1.077
0.057713427 0.32984927 -1.077
0.062529117 0.32888258 -1.0770001
0.067344792 0.32791588 -1.077
0.072160475 0.32791588 -1.077
0.077939302 0.32791588 -1.077
0.082754984 0.32791588 -1.077
0.087570667 0.32791588 -1.077
0.092707396 0.3272714 -1.077
0.097202033 0.32694918 -1.0770001
0.10298085 0.32694918 -1.0770001
0.10779653 0.32694918 -1.077
0.11261222 0.32694918 -1.0770001
0.11742792 0.32694918 -1.077
0.12176204 0.32646582 -1.077
0.12840767 0.32675585 -1.077
0.1328381 0.32598245 -1.077
0.1376538 0.32598245 -1.077
0.14246947 0.32598245 -1.077
0.14728515 0.32598245 -1.077
0.15306398 0.32598245 -1.077
0.15787965 0.32598245 -1.077
0.16076906 0.32598245 -1.077
0.18292122 0.32598245 -1.077
0.18773691 0.32598245 -1.077
0.19255258 0.32598245 -1.077
0.19736826 0.32598245 -1.077
-0.32176244 0.33371612 -1.077
-0.31213111 0.3317827 -1.077
-0.30731544 0.3317827 -1.077
-0.29672092 0.33371612 -1.077
-0.29286838 0.33371612 -1.077
-0.28805268 0.33371612 -1.077
-0.28227389 0.33371612 -1.077
-0.27745819 0.33371612 -1.077
-0.27264249 0.33274943 -1.0770001
-0.2678268 0.3317827 -1.077
-0.2630111 0.3317827 -1.077
-0.25723228 0.3317827 -1.077
-0.25241661 0.3317827 -1.077
-0.24760094 0.3317827 -1.077
-0.24278525 0.3317827 -1.077
-0.23748799 0.33226606 -1.077
-0.23219073 0.33274943 -1.0770001
-0.22737505 0.33274943 -1.077
-0.22255938 0.3317827 -1.077
-0.21774366 0.3317827 -1.077
-0.21292798 0.3317827 -1.077
-0.20714918 0.3317827 -1.077
-0.20233348 0.3317827 -1.077
-0.1975178 0.3317827 -1.077
-0.19270211 0.3317827 -1.077
-0.18750118 0.3325561 -1.077
-0.18210761 0.33274943 -1.0770001
-0.17729193 0.33274943 -1.077
-0.17247626 0.33274943 -1.0770001
-0.16766056 0.33274943 -1.077
-0.16284488 0.33274943 -1.0770001
-0.15706608 0.3317827 -1.077
-0.15225038 0.3317827 -1.077
-0.1474347 0.3317827 -1.077
-0.14261901 0.3317827 -1.077
-0.13780332 0.3317827 -1.077
-0.1320245 0.3317827 -1.077
-0.12720881 0.3317827 -1.077
-0.12239315 0.3317827 -1.077
-0.11757745 0.3317827 -1.077
-0.11372491 0.3317827 -1.077
-0.07231003 0.3317827 -1.077
-0.067494348 0.3317827 -1.077
-0.062678665 0.3317827 -1.077
-0.057862982 0.3317827 -1.077
0.054824021 0.3317827 -1.077
0.056750294 0.3317827 -1.077
0.19321482 0.31810114 -1.0700001
0.19799921 0.31810114 -1.0700001
-0.11011512 0.32386371 -1.0700001
-0.10724449 0.32386371 -1.0700001
-0.10246011 0.32386371 -1.0700001
-0.097675726 0.32386371 -1.0700001
-0.092891335 0.32386371 -1.0700001
-0.087150082 0.32386371 -1.0700001
-0.082365692 0.32386371 -1.0700001
-0.077798828 0.32477173 -1.0730002
-0.072796926 0.32386371 -1.0700001
-0.068012536 0.32386371 -1.0700001
-0.062358581 0.32335728 -1.0715001
-0.057805859 0.32322344 -1.0700001
-0.052702513 0.32386371 -1.0700001
-0.046961248 0.32386371 -1.0700001
-0.042176865 0.32386371 -1.0700001
-0.037392482 0.32386371 -1.0700001
-0.032608099 0.32386371 -1.0700001
-0.027823716 0.32386371 -1.0700001
-0.022082454 0.32386371 -1.0700001
-0.017320979 0.32431772 -1.0715001
-0.012061562 0.32406449 -1.0722501
-0.007740139 0.32335728 -1.0715001
-0.0029490476 0.32335731 -1.0715001
0.002318522 0.32265007 -1.07075
0.0072759362 0.32382879 -1.072
0.012399778 0.32477173 -1.0730002
0.017197575 0.32477173 -1.0730001
0.021952588 0.32416639 -1.0710001
0.027702793 0.32416639 -1.0710001
0.032550529 0.32477173 -1.0730001
0.03768931 0.3236402 -1.0718001
0.042649549 0.3230744 -1.0712001
0.047274172 0.3236402 -1.0718001
0.052627616 0.32335728 -1.0715001
0.057418697 0.32335728 -1.0715001
0.062209792 0.32335728 -1.0715001
0.067959107 0.32335728 -1.0715002
0.072750196 0.32335728 -1.0715001
0.077541284 0.32335731 -1.0715001
0.082332373 0.32335728 -1.0715001
0.087123469 0.32335731 -1.0715001
0.09232799 0.32265005 -1.0707501
0.097662523 0.32239416 -1.0715001
0.10231154 0.32194287 -1.0700001
0.10805279 0.32194287 -1.0700001
0.1129967 0.32239416 -1.0715001
0.11820217 0.32171607 -1.0718001
0.12274914 0.32284549 -1.0730001
0.12793621 0.32213962 -1.0722501
0.13269685 0.32115138 -1.0712001
0.1373719 0.32171607 -1.0718001
0.14250036 0.32002199 -1.0700001
0.14728473 0.32002199 -1.0700001
0.15206912 0.32002199 -1.0700001
0.15792099 0.32072785 -1.0707501
0.16229257 0.32171607 -1.0718001
0.16761379 0.32143372 -1.0715001
0.17216353 0.32002199 -1.0700001
0.17694792 0.32002199 -1.0700001
0.18224184 0.32091925 -1.0730001
0.18703964 0.32091925 -1.0730002
0.19279699 0.32091925 -1.0730002
0.19759479 0.32091925 -1.0730001
-0.32636926 0.32962626 -1.0700001
-0.32062802 0.32962626 -1.0700001
-0.31775737 0.32770541 -1.0700001
-0.31297302 0.32770544 -1.0700001
-0.30719247 0.3273046 -1.0712001
-0.30287135 0.32720441 -1.0715001
-0.29766297 0.32770544 -1.0700001
-0.29192171 0.32770544 -1.0700001
-0.28713733 0.32770541 -1.0700001
-0.28197017 0.32693705 -1.0700001
-0.27714849 0.32712084 -1.0706002
-0.27270627 0.32692045 -1.0712001
-0.26741728 0.32720441 -1.0715001
-0.26262617 0.32720441 -1.0715001
-0.25765461 0.32649449 -1.0707501
-0.25268978 0.32578456 -1.0700001
-0.24790537 0.32578456 -1.0700001
-0.24205188 0.32692045 -1.0712001
-0.23720331 0.32748839 -1.0718001
-0.23247238 0.32692045 -1.0712
-0.22761846 0.32748839 -1.0718001
-0.22289288 0.32692045 -1.0712001
-0.21758994 0.32720441 -1.0715001
-0.21228266 0.32748836 -1.0718001
-0.2075657 0.32692045 -1.0712001
-0.20225845 0.32720441 -1.0715001
-0.19746734 0.32720441 -1.0715001
-0.19267625 0.32720441 -1.0715001
-0.18736203 0.32748839 -1.0718001
-0.182659 0.32692045 -1.0712
-0.17734477 0.32720441 -1.0715002
-0.17255367 0.32720441 -1.0715001
-0.16776258 0.32720441 -1.0715001
-0.16244139 0.32748839 -1.0718001
-0.15775229 0.32692045 -1.0712
-0.1524311 0.32720441 -1.0715001
-0.14763999 0.32720441 -1.0715001
-0.14284891 0.32720441 -1.0715001
-0.13752075 0.32748839 -1.0718001
-0.13335866 0.32695118 -1.07225
-0.12731209 0.32746848 -1.0730001
-0.12241834 0.32717955 -1.0730001
-0.11714077 0.32669798 -1.0730001
-0.11234298 0.32669801 -1.0730002
-0.10754517 0.32669798 -1.0730001
-0.10274738 0.32669801 -1.0730002
-0.096990019 0.32669801 -1.0730002
-0.092192218 0.32669798 -1.0730001
-0.087394431 0.32669801 -1.0730002
-0.082596622 0.32669798 -1.0730001
-0.077798828 0.32669798 -1.0730001
-0.072041474 0.32669801 -1.0730002
-0.067243673 0.32669798 -1.0730001
-0.062445872 0.32669801 -1.0730002
-0.057648074 0.32669798 -1.0730001
-0.052850276 0.32669801 -1.0730002
-0.047092922 0.32669801 -1.0730002
-0.042295121 0.32669798 -1.0730001
-0.037497323 0.32669801 -1.0730002
-0.032699525 0.32669798 -1.0730001
-0.027901728 0.32669801 -1.0730002
-0.02310393 0.32669798 -1.0730001
0.022954933 0.32669798 -1.0730001
0.027752733 0.32669801 -1.0730002
0.032550529 0.32669798 -1.0730001
0.0546204 0.32669798 -1.0730001
0.057499081 0.32669798 -1.0730001
-0.32536522 0.33247668 -1.0730001
-0.32344609 0.33247668 -1.0730001
-0.31768873 0.33055049 -1.0730002
-0.31385049 0.33055046 -1.0730001
-0.30137622 0.33055046 -1.0730001
-0.29753798 0.33055046 -1.0730001
-0.2927402 0.33055049 -1.0730002
-0.28698283 0.33055049 -1.0730002
-0.28218502 0.33055046 -1.0730001
-0.27738726 0.33055049 -1.0730002
0.14387424 0.31499833 -1.0660001
0.14768744 0.31499833 -1.0660002
0.15245393 0.31499833 -1.0660001
0.15626714 0.31499833 -1.0660001
0.19916561 0.31499833 -1.0660001
-0.07729128 0.31882566 -1.0660002
-0.072524786 0.31882566 -1.0660001
-0.067758292 0.31882566 -1.0660002
-0.062038489 0.31882566 -1.0660002
-0.057271995 0.31882566 -1.0660001
-0.052505493 0.31882566 -1.0660002
-0.010560308 0.31882566 -1.0660001
-0.0077004083 0.31882566 -1.0660001
-0.0029339101 0.31882566 -1.0660002
0.0027858883 0.31882566 -1.0660002
0.0065990868 0.31882566 -1.0660001
0.018038683 0.31882566 -1.0660001
0.028524978 0.31882566 -1.0660001
0.03233818 0.31882566 -1.0660001
0.037104677 0.31882566 -1.0660002
0.043205794 0.31806022 -1.0660001
0.047590971 0.31786883 -1.0660001
0.052357472 0.31786883 -1.0660001
0.058077272 0.31786883 -1.0660001
0.06284377 0.31786883 -1.0660001
0.067133613 0.31834725 -1.0660001
0.07269454 0.31818777 -1.0660002
0.077143267 0.31786883 -1.0660001
0.082863063 0.31786883 -1.0660001
0.087629564 0.31786883 -1.0660001
0.092396066 0.31786883 -1.0660001
0.09716256 0.31786883 -1.0660001
0.10240571 0.31834725 -1.0660001
0.10764886 0.31786883 -1.0660001
0.11241536 0.31786883 -1.0660001
0.1167052 0.31739041 -1.0660001
0.12290165 0.31786883 -1.0660001
0.12735038 0.31754988 -1.0660002
0.13243465 0.316912 -1.0660002
0.13720113 0.316912 -1.0660001
0.14196764 0.316912 -1.0660002
0.14768744 0.316912 -1.0660002
0.15245393 0.316912 -1.0660001
0.15722045 0.316912 -1.0660002
0.16294023 0.316912 -1.0660002
0.16770673 0.316912 -1.0660001
0.17247324 0.316912 -1.0660002
0.17723973 0.316912 -1.0660001
0.18200622 0.316912 -1.0660002
0.18772602 0.316912 -1.0660002
-0.31656951 0.32456669 -1.0660001
-0.3127563 0.32456669 -1.0660001
-0.30837116 0.3234185 -1.0660001
-0.30227003 0.32265303 -1.0660002
-0.2975035 0.32360986 -1.0660001
-0.29273701 0.32360989 -1.0660001
-0.2870172 0.32265303 -1.0660001
-0.28244138 0.3222703 -1.0660001
-0.27748424 0.32169619 -1.0660001
-0.27271771 0.32169616 -1.0660001
-0.26795122 0.32169616 -1.0660001
-0.26223141 0.32169619 -1.0660001
-0.25746492 0.32169619 -1.0660001
-0.25269842 0.32169619 -1.0660001
-0.24697864 0.32169616 -1.0660001
-0.24221212 0.32169616 -1.0660001
-0.23744564 0.32169616 -1.0660001
-0.23267914 0.32169616 -1.0660001
-0.22829397 0.32188758 -1.0660001
-0.22219285 0.32265303 -1.0660002
-0.21742634 0.32169619 -1.0660001
-0.21313649 0.32217461 -1.0660001
-0.20694005 0.32265303 -1.0660002
-0.20217355 0.32265303 -1.0660001
-0.19740705 0.32265303 -1.0660002
-0.19264054 0.32265303 -1.0660001
-0.18787406 0.32265303 -1.0660002
-0.18177293 0.32188758 -1.0660001
-0.17738776 0.32169616 -1.0660001
-0.17262125 0.32169616 -1.0660001
-0.16785476 0.32169616 -1.0660001
-0.16308826 0.32169616 -1.0660001
-0.15736847 0.32265303 -1.0660002
-0.15260196 0.32265303 -1.0660001
-0.14783546 0.32265303 -1.0660002
-0.14211568 0.32265303 -1.0660002
-0.13703141 0.32201514 -1.0660002
-0.13258266 0.32169616 -1.0660001
-0.12781617 0.32169616 -1.0660001
-0.12304968 0.32169616 -1.0660001
-0.11732988 0.32169616 -1.0660001
-0.11256337 0.32169616 -1.0660001
-0.10779688 0.32073933 -1.0660002
-0.10207707 0.32073933 -1.0660002
-0.097310573 0.32073933 -1.0660001
-0.092544079 0.32073933 -1.0660002
-0.087777585 0.32073933 -1.0660001
-0.083011083 0.32073933 -1.0660002
-0.07729128 0.32073933 -1.0660002
-0.072524786 0.32073933 -1.0660001
-0.067758292 0.32073933 -1.0660002
-0.056318693 0.32073933 -1.0660001
-0.052505493 0.32073933 -1.0660002
-0.047738999 0.32073933 -1.0660001
-0.042972501 0.32073933 -1.0660002
-0.037252702 0.32073933 -1.0660002
-0.0324862 0.32073933 -1.0660001
-0.027719703 0.32073933 -1.0660002
-0.021999907 0.32073933 -1.0660002
-0.017233405 0.32073933 -1.0660001
-0.013420206 0.32073933 -1.0660001
0.0085056862 0.32073933 -1.0660001
0.012318885 0.32073933 -1.0660002
0.018038683 0.32073933 -1.0660002
0.02280518 0.32073933 -1.0660001
0.027571678 0.32073933 -1.0660002
0.03233818 0.32073933 -1.0660001
0.035198078 0.32073933 -1.0660001
-0.32514921 0.32648036 -1.0660001
-0.32228932 0.32743719 -1.0660001
-0.3194294 0.32648036 -1.0660001
0.1392727 0.30941954 -1.0600001
0.14306444 0.30941957 -1.0600002
0.14780411 0.30941954 -1.0600001
0.15254378 0.30941957 -1.0600002
0.15728346 0.3084681 -1.0600001
0.16249709 0.30799237 -1.0600001
0.16771075 0.30941957 -1.0600002
0.17245039 0.30941954 -1.0600001
0.17624213 0.30941954 -1.0600001
0.18382561 0.30941954 -1.0600001
0.18761733 0.30941954 -1.0600001
0.192357 0.30941957 -1.0600002
0.19804463 0.30815095 -1.0600002
-0.27213067 0.31322536 -1.0600002
-0.26739097 0.31322536 -1.0600001
-0.26265132 0.31322536 -1.0600002
-0.2569637 0.31322536 -1.0600001
-0.13657609 0.31322536 -1.0600001
-0.13278437 0.31322536 -1.0600001
-0.12804469 0.31322536 -1.0600002
-0.12235709 0.31322536 -1.0600002
-0.11761741 0.31322536 -1.0600001
-0.11287775 0.31322536 -1.0600002
-0.10719013 0.31322536 -1.0600002
-0.10245048 0.31322536 -1.0600001
-0.097710811 0.31322536 -1.0600002
-0.092023194 0.31322536 -1.0600002
-0.087283522 0.31322536 -1.0600001
-0.082543857 0.31322536 -1.0600002
-0.077804193 0.31322536 -1.0600001
-0.073064514 0.31322536 -1.0600002
-0.067376912 0.31322536 -1.0600002
-0.06263724 0.31322536 -1.0600001
-0.057897575 0.31322536 -1.0600002
-0.05220997 0.31322536 -1.0600002
-0.026615746 0.31322536 -1.0600001
-0.022824012 0.31322536 -1.0600001
-0.018084342 0.31322536 -1.0600002
-0.012396738 0.31322536 -1.0600002
-0.0076570669 0.31322536 -1.0600001
-0.0029173966 0.31322536 -1.0600002
0.0027702076 0.31322536 -1.0600002
0.0075098779 0.31322536 -1.0600001
0.012249548 0.31322536 -1.0600002
0.017937154 0.31322536 -1.0600002
0.022992801 0.31259108 -1.0600002
0.027430318 0.31242168 -1.0605
0.032761328 0.31243822 -1.0612001
0.036928847 0.31352088 -1.0610001
0.042703956 0.31411183 -1.0630001
0.047457039 0.31411183 -1.0630001
0.05221013 0.31411183 -1.0630001
0.057832103 0.31271714 -1.0615001
0.062578477 0.31271714 -1.0615001
0.067846388 0.31341448 -1.06225
0.072619632 0.31243822 -1.0612
0.077218495 0.31299609 -1.0618001
0.082513265 0.31271714 -1.0615001
0.087803736 0.31243822 -1.0612
0.09241119 0.31299609 -1.0618001
0.097701669 0.31271714 -1.0615001
0.10244805 0.31271714 -1.0615001
0.10719442 0.31271714 -1.0615001
0.11289008 0.31271714 -1.0615001
0.11763645 0.31271714 -1.0615001
0.12238283 0.31271714 -1.0615001
0.12766205 0.31243822 -1.0612001
0.13229203 0.31299609 -1.0618
0.13770172 0.31301084 -1.0625002
0.14220187 0.31283966 -1.0630001
0.14727181 0.31220359 -1.0630001
0.15297551 0.31220359 -1.0630001
0.15820388 0.31220353 -1.0630001
0.16224404 0.31244206 -1.0630001
