# .PCD v0.7 - Point Cloud Data file format
VERSION 0.7
FIELDS x y z
SIZE 4 4 4
TYPE F F F
COUNT 1 1 1
WIDTH 1337
HEIGHT 1
VIEWPOINT 0 0 0 1 0 0 0
POINTS 1337
DATA ascii
0.04267031 -0.16043797 -0.57083338
0.047432549 -0.16076969 -0.57080007
0.052509468 -0.16068546 -0.57050008
0.057611328 -0.16068548 -0.57050008
0.062713176 -0.16068548 -0.57050008
0.067815028 -0.16068548 -0.57050008
0.072756827 -0.16048737 -0.57025009
0.077784188 -0.16072671 -0.57044452
0.082334757 -0.16064422 -0.57055563
0.087422989 -0.16088913 -0.57072735
-0.2708855 -0.15636322 -0.57080001
-0.2674402 -0.15621279 -0.57100004
-0.26285452 -0.15649942 -0.57080013
-0.25246164 -0.15621282 -0.57100004
-0.24735533 -0.15621284 -0.57100004
-0.092522815 -0.15697652 -0.57076198
-0.087319545 -0.15691218 -0.57075018
-0.062693417 -0.15626654 -0.57092869
0.0026199915 -0.15683064 -0.57089496
0.0077131223 -0.15696333 -0.57071441
-0.2779035 -0.15555008 -0.57071435
-0.18174949 0.0017360351 -0.57090914
-0.17675051 0.0065965522 -0.57083344
-0.17100102 0.01086339 -0.57066673
-0.16698314 0.011436297 -0.57088894
-0.16093238 0.016741438 -0.57025003
-0.16104081 0.02587381 -0.57033336
-0.16723368 -0.16003345 -0.57000005
-0.15805839 -0.16003345 -0.57000005
-0.1274741 -0.16003345 -0.57000005
-0.12339619 -0.16003345 -0.57000005
-0.01176355 -0.16003345 -0.57000005
0.0096454499 -0.16003345 -0.57000005
0.0223889 -0.16003345 -0.57000005
-0.20713893 -0.15924197 -0.56900007
-0.20205049 -0.15924196 -0.56900007
-0.091914095 -0.15884477 -0.56900007
-0.087051801 -0.15873127 -0.56900007
0.0023196798 -0.15873125 -0.56900007
-0.16060707 0.024153059 -0.57000005
0.05228414 -0.16305374 -0.56805003
0.057368692 -0.16306804 -0.56810004
0.062455028 -0.16308253 -0.56815004
0.077697098 -0.16308235 -0.56815004
0.087277301 -0.16300729 -0.56814301
0.072666943 -0.16285984 -0.56818187
-0.18239334 -0.1615101 -0.56800008
-0.21240222 -0.15921183 -0.56872731
-0.1974709 -0.15924196 -0.56900001
-0.19289131 -0.15975271 -0.56900001
-0.18780288 -0.15975271 -0.56900001
-0.18271445 -0.15975271 -0.56900001
-0.177626 -0.15975271 -0.56900001
-0.17253757 -0.15975271 -0.56900001
-0.1694845 -0.1597527 -0.56900001
-0.15523687 -0.1597527 -0.56900001
-0.15262623 -0.15968251 -0.56875002
-0.14747319 -0.15961233 -0.56850004
-0.14251578 -0.1597527 -0.56900001
-0.13997155 -0.1597527 -0.56900001
-0.12063549 -0.1597527 -0.56900001
-0.11758243 -0.15975271 -0.56900001
-0.11249399 -0.15975271 -0.56900001
-0.10725526 -0.15952809 -0.56820005
-0.097159252 -0.15964039 -0.56860006
-0.037152428 -0.15910159 -0.56850004
-0.032068461 -0.15910159 -0.56850004
-0.027510693 -0.15920687 -0.56887501
0.024893843 -0.1597527 -0.56900001
0.027946904 -0.15975271 -0.56900001
0.032526497 -0.1597527 -0.56900001
-0.26745534 -0.15859121 -0.56849992
-0.262164 -0.15873802 -0.56841677
-0.25254926 -0.15848854 -0.56813347
-0.24771155 -0.15847844 -0.56835711
-0.23280787 -0.15880971 -0.56806678
-0.22703867 -0.15884636 -0.56850004
-0.22247632 -0.15848045 -0.56838471
-0.21789028 -0.15877916 -0.56819999
-0.082445189 -0.1581682 -0.56881261
-0.078031935 -0.15840884 -0.56870592
-0.072761521 -0.15863828 -0.56866676
-0.067644924 -0.15856341 -0.56840014
-0.062539488 -0.15850726 -0.56820005
-0.057450742 -0.15848841 -0.56813329
-0.052383184 -0.15852572 -0.56826669
-0.047306485 -0.15854469 -0.56833339
-0.042484179 -0.15882313 -0.56841671
-0.022666257 -0.15886962 -0.56858331
-0.018071827 -0.15878041 -0.5686155
-0.013189579 -0.15894288 -0.56871432
-0.0076721623 -0.15873124 -0.56900001
-0.0025837242 -0.15873124 -0.56900001
0.0070843087 -0.15873124 -0.56900001
-0.27282262 -0.1577443 -0.56820834
-0.18272144 0.0033868006 -0.56857145
-0.17811742 0.0084797069 -0.5684706
-0.17457293 0.009810199 -0.56900001
-0.16759273 0.01369492 -0.56862503
-0.16405684 0.014577027 -0.56900001
-0.16277511 0.018021699 -0.56857896
-0.1625776 0.022281164 -0.56820005
-0.16288227 0.025537858 -0.56828582
0.067517862 -0.16303943 -0.56800002
0.08274889 -0.16302495 -0.56795001
0.092348449 -0.16337331 -0.56764287
0.097484104 -0.16327159 -0.56730771
-0.16252512 -0.16217741 -0.56789482
-0.1424225 -0.16210292 -0.56713051
-0.13767499 -0.16200437 -0.5675239
-0.13250437 -0.16239621 -0.56753337
-0.12753479 -0.16201973 -0.56799996
-0.027608892 -0.16205835 -0.56782353
-0.012632708 -0.16203159 -0.56761909
-0.007787203 -0.16227683 -0.56773919
0.0077040372 -0.16217698 -0.56739134
0.012654846 -0.16247083 -0.56779999
0.017731158 -0.16245946 -0.56776011
0.022802228 -0.16241394 -0.56759995
0.02785849 -0.16229911 -0.56720001
0.032610923 -0.162035 -0.56721061
0.042199623 -0.16204815 -0.5676316
0.047166996 -0.16292389 -0.56760007
-0.21237771 -0.16117337 -0.56707138
-0.20759575 -0.16117339 -0.56707138
-0.19257312 -0.16124469 -0.56706673
-0.18745555 -0.16139606 -0.567375
-0.17731878 -0.16164725 -0.5678125
-0.17253205 -0.16147193 -0.56786674
-0.16730666 -0.16166553 -0.56770581
-0.15738006 -0.16189206 -0.56755555
-0.15267225 -0.16146147 -0.5675714
-0.14759368 -0.16171412 -0.5672105
-0.12255096 -0.16192409 -0.56794733
-0.11750513 -0.16184802 -0.56740004
-0.11229935 -0.16188864 -0.56728572
-0.10739842 -0.16199705 -0.56726313
-0.092749223 -0.1618598 -0.56715792
-0.087829389 -0.16186212 -0.56744999
-0.082725838 -0.16180561 -0.56724995
-0.077653043 -0.16180561 -0.56725001
-0.072580256 -0.16180559 -0.56725001
-0.067501694 -0.16179143 -0.56719995
-0.062423851 -0.16177718 -0.56714994
-0.057348091 -0.1614985 -0.56711763
-0.052284766 -0.16179122 -0.56720001
-0.047216326 -0.16180561 -0.56724995
-0.042165548 -0.16189119 -0.56755012
-0.037198793 -0.16181844 -0.56757891
-0.032273322 -0.16191915 -0.56765002
-0.022877006 -0.16187623 -0.5675
-0.017801983 -0.16187625 -0.56750005
-0.0025788117 -0.16196235 -0.5678001
0.0024975815 -0.16184799 -0.56739998
0.037383147 -0.16185686 -0.56752634
-0.20238975 -0.16074552 -0.56709999
-0.19745785 -0.16085924 -0.56750005
-0.10213729 -0.15947193 -0.56800002
-0.28260887 -0.15835248 -0.56747627
-0.25747114 -0.15866975 -0.56757146
-0.24255179 -0.15860093 -0.56754553
-0.23754966 -0.15881991 -0.56750005
-0.27755484 -0.15771283 -0.56761909
-0.18206666 0.006651293 -0.56721431
-0.17671415 0.011729214 -0.56716663
-0.17264324 0.013120271 -0.56780779
-0.16749465 0.017931797 -0.56743336
-0.16661942 0.025228478 -0.56733334
0.062285531 -0.1651818 -0.56660002
0.06739898 -0.1652984 -0.56700003
0.072469532 -0.1652984 -0.56700003
0.077033028 -0.1652984 -0.56700003
-0.10286666 -0.1618526 -0.5667001
-0.097722672 -0.1616074 -0.56680959
-0.2829833 -0.16094258 -0.5660001
-0.27563369 -0.16057581 -0.56650007
-0.27259406 -0.16057581 -0.56650001
-0.267528 -0.16057581 -0.56650001
-0.26314625 -0.16052341 -0.56657147
-0.25508818 -0.16020904 -0.56700003
-0.25232974 -0.16057581 -0.56650001
-0.24752106 -0.16061656 -0.56644446
-0.23159431 -0.1603784 -0.56700003
-0.22734815 -0.16067934 -0.56666666
-0.22244032 -0.16057581 -0.56650001
-0.21724023 -0.16061658 -0.56644446
-0.28551149 -0.15919 -0.56700003
-0.1716661 0.017507901 -0.56638461
-0.17190608 0.022378307 -0.56608337
-0.1678447 0.022495339 -0.56690007
0.049058322 -0.16500689 -0.56600004
0.05209529 -0.16500689 -0.56600004
0.057156898 -0.16500689 -0.56600004
-0.28561532 -0.16175543 -0.56600004
-0.24451505 -0.16094257 -0.56600004
-0.17668948 0.021443367 -0.56600004
-0.16259067 -0.16406244 -0.56450003
-0.15780759 -0.1641026 -0.56444448
-0.14306481 -0.16430062 -0.5645715
-0.13750719 -0.16422567 -0.56462502
-0.12773554 -0.16403347 -0.56440008
-0.12271035 -0.16406243 -0.56450003
-0.11766215 -0.16406244 -0.56450003
-0.11261395 -0.16406244 -0.56450003
-0.10788941 -0.16429856 -0.56487501
-0.1024961 -0.16426454 -0.565
-0.097555704 -0.1642082 -0.565
-0.092454456 -0.16412075 -0.56470007
-0.087372988 -0.16406244 -0.56450003
-0.082324788 -0.16406244 -0.56450003
-0.077276587 -0.16406244 -0.56450003
-0.072228394 -0.16406244 -0.56450003
-0.067203462 -0.16412076 -0.56470007
-0.062187027 -0.1642082 -0.565
-0.052264895 -0.16402228 -0.56455559
-0.047280952 -0.16417481 -0.56472731
-0.042444035 -0.16406244 -0.56450003
-0.03790066 -0.16406244 -0.56450003
-0.032852467 -0.16406244 -0.56450003
-0.02780427 -0.16406244 -0.56450003
-0.022756074 -0.16406244 -0.56450003
-0.017713616 -0.16412075 -0.56470007
-0.012895458 -0.16426454 -0.565
-0.0071851434 -0.16442555 -0.56500006
-0.0025655609 -0.16420822 -0.565
0.0024871062 -0.1642082 -0.565
0.0071066879 -0.16442555 -0.56500006
0.012592441 -0.16471535 -0.565
0.017645108 -0.16471535 -0.565
0.022697775 -0.16471535 -0.565
0.027750442 -0.16471535 -0.565
0.033027671 -0.16426456 -0.565
0.037855778 -0.1642082 -0.565
0.042529497 -0.16433498 -0.565
0.046950579 -0.16471535 -0.565
0.079287648 -0.16471535 -0.565
0.082319252 -0.16471535 -0.565
0.087692201 -0.16422567 -0.56462502
0.092734754 -0.16449772 -0.5648334
0.097140417 -0.16454631 -0.56500006
-0.28230709 -0.1630013 -0.56464708
-0.1822468 -0.16352662 -0.56440008
-0.17745157 -0.1637004 -0.56446165
-0.17215243 -0.16352664 -0.56440008
-0.16750559 -0.16359183 -0.56433344
-0.15247709 -0.16353753 -0.56443757
-0.14750391 -0.16393739 -0.56454551
-0.132713 -0.16394655 -0.56410009
-0.05710353 -0.16376741 -0.56469238
-0.27743065 -0.15964393 -0.565
-0.18198007 0.0091194091 -0.5642001
-0.17940891 0.0097412346 -0.565
-0.18184863 0.011816468 -0.56400007
-0.17789254 0.013447845 -0.56446677
-0.17707184 0.017616848 -0.56472719
-0.17351413 0.018278113 -0.56500006
-0.17587204 0.020898342 -0.565
-0.17334571 0.020898342 -0.565
0.042632051 -0.16701235 -0.56308705
0.052742582 -0.16707747 -0.56300008
0.047926221 -0.16699907 -0.56304348
-0.27263767 -0.16334178 -0.5636251
-0.26774573 -0.16333959 -0.56375998
-0.26250836 -0.1631086 -0.56374079
-0.25253126 -0.1632812 -0.56355995
-0.24754433 -0.16331612 -0.56367999
-0.2275508 -0.16329296 -0.56359994
-0.22251065 -0.16329294 -0.56360006
-0.21753204 -0.16333957 -0.5637601
-0.21269482 -0.16364563 -0.56386364
-0.2074956 -0.16384292 -0.56375009
-0.20233549 -0.16328098 -0.56356001
-0.19736537 -0.16333863 -0.56375992
-0.19228546 -0.16376954 -0.56350005
-0.18732968 -0.16384292 -0.56375015
-0.27749914 -0.16280538 -0.56343341
-0.25746691 -0.16281472 -0.56369996
-0.24229866 -0.16289903 -0.56368965
-0.23739278 -0.16288117 -0.56342858
-0.23262611 -0.16283427 -0.56376666
-0.12770957 -0.16738854 -0.56206667
-0.12272799 -0.16729194 -0.56203461
-0.11753742 -0.16702902 -0.56242317
-0.11257605 -0.16729501 -0.56244445
-0.027585734 -0.16718808 -0.56233335
-0.022668734 -0.16746846 -0.56233341
-0.017634684 -0.16741842 -0.56216669
-0.012715318 -0.16724184 -0.56217861
-0.0024759518 -0.16709524 -0.56238461
0.0023999342 -0.16719787 -0.56273085
0.0075078504 -0.16705444 -0.56264013
0.012536952 -0.16701883 -0.56252003
0.017682699 -0.16727553 -0.56262964
0.022607641 -0.1670903 -0.56276006
0.027630741 -0.1670309 -0.56256008
0.032783628 -0.16730878 -0.5627408
0.037639435 -0.16725563 -0.56292325
0.077449992 -0.16706233 -0.56266677
0.082610779 -0.16725037 -0.56257147
0.08756613 -0.16751897 -0.56244832
0.092501283 -0.16748738 -0.56240004
0.097547919 -0.16751704 -0.56250012
-0.17739707 -0.16637348 -0.56228578
-0.17205949 -0.16619806 -0.56235301
-0.13749453 -0.16628148 -0.5621112
-0.10762725 -0.16677956 -0.56230438
-0.10240521 -0.16650879 -0.56250006
-0.097374886 -0.16650879 -0.56250006
-0.092270732 -0.16637562 -0.56205004
-0.077611588 -0.16648059 -0.56231582
-0.067641161 -0.16637579 -0.56205004
-0.062665753 -0.16650876 -0.56250006
-0.057507496 -0.16669747 -0.56236368
-0.052876811 -0.16684061 -0.56222725
-0.04771851 -0.16684246 -0.56220841
-0.042899527 -0.16672839 -0.56213051
-0.037756573 -0.16646449 -0.56235003
-0.032721527 -0.16643499 -0.56225008
-0.0075813364 -0.16694787 -0.56228006
0.057748925 -0.16672046 -0.56294745
0.062631607 -0.16662636 -0.56290001
0.067526698 -0.16660482 -0.56273681
0.072595559 -0.16684373 -0.56252176
-0.28173777 -0.16549987 -0.5625
-0.1623736 -0.16585737 -0.56200016
-0.15734778 -0.16585736 -0.5620001
-0.18235399 -0.1662664 -0.56194746
-0.16744097 -0.16625494 -0.56194115
-0.15211296 -0.16605973 -0.56188238
-0.14209288 -0.16609423 -0.56199998
-0.13264747 -0.16677415 -0.56169236
-0.087445915 -0.16673878 -0.56172734
-0.082754478 -0.16665477 -0.56200004
-0.07264258 -0.16631675 -0.56185001
-0.26777399 -0.16573127 -0.56100011
-0.18683472 -0.16573128 -0.56100011
-0.14740515 -0.16596487 -0.56193751
-0.2774733 -0.16616769 -0.56100005
-0.27245644 -0.16606699 -0.56100005
-0.26242262 -0.16556342 -0.56100005
-0.25740573 -0.16556342 -0.56100005
-0.25238883 -0.16556342 -0.56100005
-0.24737194 -0.16556342 -0.56100005
-0.24235506 -0.16556342 -0.56100005
-0.23834151 -0.16556343 -0.56100005
-0.23232125 -0.16556342 -0.56100005
-0.22730434 -0.16556342 -0.56100005
-0.22228745 -0.16556342 -0.56100005
-0.21727057 -0.16556342 -0.56100005
-0.2142604 -0.16556342 -0.56100005
-0.19168437 -0.16556342 -0.56100005
-0.11762066 -0.16964014 -0.55950004
-0.11257406 -0.16979042 -0.55928576
-0.092542954 -0.16902633 -0.55913335
-0.077568978 -0.16908719 -0.55933338
-0.072610967 -0.16918819 -0.55966675
-0.067605995 -0.16918819 -0.55966675
-0.062548459 -0.16904646 -0.55919999
-0.057766899 -0.16916378 -0.55907696
-0.047757898 -0.16951688 -0.55954546
-0.042324387 -0.16941416 -0.55958331
-0.011056378 -0.16928953 -0.56
-0.0073226392 -0.16960119 -0.55955559
-0.0027629097 -0.16967911 -0.55944443
0.0026852265 -0.16967912 -0.55944443
0.0074599669 -0.16951887 -0.55910009
0.017086707 -0.16965178 -0.55912501
0.022476822 -0.16964017 -0.55949998
0.027480304 -0.16964017 -0.55949998
0.037706122 -0.16967912 -0.55944443
0.042721272 -0.1693131 -0.55925
0.047208764 -0.16926226 -0.55908334
0.07224039 -0.16933829 -0.55933332
0.077515133 -0.16964015 -0.55950004
0.081304386 -0.16946483 -0.55974996
-0.27802798 -0.16840197 -0.55918187
0.097394697 -0.17214325 -0.55813783
-0.13246466 -0.16942763 -0.55880004
-0.12220759 -0.16966338 -0.55875003
-0.10721906 -0.16916148 -0.55875003
-0.087689854 -0.16932368 -0.55890912
-0.082235187 -0.16916148 -0.55875003
-0.052254528 -0.16916148 -0.55875003
-0.027907848 -0.16961397 -0.55900002
0.012451492 -0.1693974 -0.55870003
0.032064646 -0.16953772 -0.55875003
0.052623898 -0.16932368 -0.55890906
-0.28073144 -0.16883516 -0.55850005
-0.27251157 -0.16848379 -0.55876178
-0.26735345 -0.1680185 -0.55881816
-0.18271673 -0.16858891 -0.55821055
-0.17753297 -0.1688063 -0.55864286
-0.17257567 -0.16844963 -0.5583334
-0.16746671 -0.16863351 -0.55825001
-0.16263971 -0.16836293 -0.55859995
-0.15751746 -0.16822782 -0.55815005
-0.15267493 -0.16834055 -0.55826318
-0.1474435 -0.16844963 -0.55833346
-0.14263232 -0.16848315 -0.55849999
-0.13746205 -0.16892557 -0.55880004
-0.10251853 -0.16898602 -0.55900002
-0.097519517 -0.16898602 -0.55900002
-0.037527751 -0.168966 -0.55893344
-0.032516625 -0.16890542 -0.5587334
0.05741556 -0.16888529 -0.55866671
0.062426835 -0.16892558 -0.55880004
0.067447841 -0.16898602 -0.55900002
-0.26240635 -0.16770183 -0.55820835
-0.25735083 -0.16773109 -0.55803847
-0.25244066 -0.1677137 -0.55825007
-0.24753414 -0.16774043 -0.55820006
-0.24252503 -0.16772848 -0.55816007
-0.23258746 -0.16718899 -0.55842865
-0.21239097 -0.16740939 -0.55833334
-0.20755781 -0.16725938 -0.55826664
-0.20249271 -0.16719873 -0.55806673
-0.28080988 -0.17265123 -0.55733341
-0.27754804 -0.17241852 -0.55712003
0.077196471 -0.17244244 -0.55720001
0.082409702 -0.17224085 -0.55763334
0.087442949 -0.17216641 -0.55793345
0.092443265 -0.17218705 -0.55800003
-0.077263996 -0.17142273 -0.55713344
-0.07230895 -0.17148414 -0.55733341
-0.067124635 -0.17173162 -0.55705559
-0.062302731 -0.17138121 -0.5570001
-0.047197945 -0.17173149 -0.55705559
-0.04241338 -0.1715254 -0.5574668
-0.027204962 -0.17122775 -0.55700016
-0.022483969 -0.17110963 -0.55775005
-0.017496137 -0.1711096 -0.55775005
-0.012460961 -0.17123248 -0.55776209
-0.0076444931 -0.17146771 -0.55768758
-0.0025317115 -0.17152539 -0.5574668
0.0024524133 -0.17144312 -0.55720013
0.0072541474 -0.17107411 -0.55718195
0.037336525 -0.1719579 -0.55724996
0.042312015 -0.17192714 -0.55715007
0.047181811 -0.17181839 -0.55705267
0.067379154 -0.17173161 -0.55705559
0.07220754 -0.17192735 -0.55715007
-0.17786483 -0.17038248 -0.5570001
-0.12242539 -0.17065631 -0.55708343
-0.12728548 -0.16968663 -0.55800003
-0.23732403 -0.16753082 -0.55788457
-0.22745359 -0.16715279 -0.55800003
-0.22226253 -0.16738819 -0.55758333
-0.21741243 -0.16771948 -0.55800003
-0.1975096 -0.16711956 -0.55786204
-0.19268046 -0.16733503 -0.55759263
-0.18765099 -0.1676684 -0.55796152
-0.280476 -0.17538208 -0.55700004
-0.27806723 -0.17595147 -0.55616671
-0.27242321 -0.17145395 -0.55647069
-0.26730603 -0.17103882 -0.55638474
-0.15753637 -0.17103882 -0.55638474
-0.11735696 -0.17102957 -0.55666679
-0.11286241 -0.17108615 -0.55653858
-0.10237011 -0.17112929 -0.55664301
-0.097324133 -0.17138621 -0.55681258
-0.09216778 -0.17134044 -0.55686682
-0.087134928 -0.17123824 -0.55653346
-0.082178026 -0.17127927 -0.55666679
-0.057308249 -0.17134044 -0.55686682
-0.052309167 -0.17127927 -0.55666679
-0.037388753 -0.17134067 -0.55686682
0.017387534 -0.17129929 -0.55673343
0.022366708 -0.17115688 -0.55676937
0.027341144 -0.17127925 -0.55666679
0.032459766 -0.17148705 -0.55693763
0.052250277 -0.17134042 -0.55686682
0.057210006 -0.17127927 -0.55666679
0.062211104 -0.17134067 -0.55686682
-0.26238245 -0.17079519 -0.5562728
-0.23820612 -0.17007658 -0.55600011
-0.20207494 -0.17007658 -0.55600011
-0.18649545 -0.17007658 -0.55600011
-0.18258265 -0.17013776 -0.55620003
-0.17272897 -0.17060384 -0.55650014
-0.16741325 -0.17055421 -0.55611116
-0.16277523 -0.17072861 -0.55650014
-0.15297897 -0.17087619 -0.55616677
-0.14784525 -0.17072861 -0.55650008
-0.14239189 -0.17075425 -0.55658352
-0.13718612 -0.17075853 -0.55677783
-0.13241716 -0.17072861 -0.55650014
-0.12751657 -0.17049783 -0.55683339
-0.10753391 -0.17072861 -0.55650014
-0.032393064 -0.17075936 -0.55660009
0.012588056 -0.17093457 -0.55672741
-0.25743192 -0.17024294 -0.55600005
-0.25250116 -0.1704509 -0.55600005
-0.24715605 -0.17007659 -0.55600005
-0.24218388 -0.17007659 -0.55600005
-0.21732298 -0.17007659 -0.55600005
-0.21235077 -0.17007659 -0.55600005
-0.20737863 -0.17007659 -0.55600005
-0.27568442 -0.17737168 -0.55462497
-0.27549833 -0.17475232 -0.55500001
0.0726275 -0.17413461 -0.55444437
0.07785698 -0.17468937 -0.55480003
0.082847558 -0.17475234 -0.55500001
0.087716959 -0.17456341 -0.55440003
0.092706107 -0.1746264 -0.55460006
0.097755983 -0.17432389 -0.55416667
-0.27184698 -0.17388494 -0.55454546
-0.26710296 -0.17318939 -0.55418748
-0.26228285 -0.17314471 -0.55411112
-0.15229045 -0.17316201 -0.55416667
-0.10273096 -0.17324425 -0.55411768
-0.097673722 -0.17350473 -0.55419999
0.017306335 -0.17348397 -0.5541333
0.027223026 -0.17352571 -0.55426663
0.052661106 -0.1735047 -0.55419993
0.057630785 -0.17354669 -0.55433333
0.062737547 -0.17349751 -0.55437493
0.067666054 -0.17383289 -0.55409086
-0.14756 -0.17293435 -0.55405265
-0.032241393 -0.17294388 -0.55400008
-0.23579241 -0.16977067 -0.55500001
-0.23259388 -0.16932787 -0.55500001
-0.22764595 -0.16911958 -0.55449992
-0.22305898 -0.16924413 -0.55449998
-0.21991004 -0.16977067 -0.55500001
-0.2025387 -0.16977067 -0.55500001
-0.19707914 -0.16977067 -0.55500001
-0.1921159 -0.16977067 -0.55500001
-0.18864164 -0.16977067 -0.55500001
-0.27599278 -0.18040468 -0.55400002
-0.27217385 -0.17734817 -0.5533334
0.087422952 -0.1774873 -0.55321443
0.092539735 -0.17729217 -0.55360001
0.097542986 -0.17747419 -0.55348152
-0.2524578 -0.17301112 -0.5533334
-0.17275473 -0.17307459 -0.55328584
-0.16760652 -0.17301558 -0.55332142
-0.15769671 -0.1734463 -0.55370003
-0.13751912 -0.17328025 -0.55337048
-0.13237233 -0.1732526 -0.55340004
-0.11757313 -0.17304055 -0.55377787
-0.11232613 -0.17320766 -0.55400002
-0.092639916 -0.1733585 -0.55373335
-0.087623954 -0.17323361 -0.5533334
-0.082695179 -0.17327537 -0.55346668
-0.077764735 -0.17331687 -0.55360001
-0.072647616 -0.17330126 -0.55374998
-0.067913324 -0.17348179 -0.55333334
-0.062627144 -0.17344177 -0.55400002
-0.057507746 -0.1734418 -0.55400002
-0.052356824 -0.17333749 -0.55366671
-0.047535446 -0.17365152 -0.55369234
-0.041960079 -0.17366788 -0.55366671
-0.03715894 -0.17376533 -0.55345005
-0.027453577 -0.17315219 -0.55382359
-0.022319362 -0.17333736 -0.55366671
-0.017368047 -0.17333737 -0.55366665
-0.012488319 -0.17342336 -0.55371428
-0.0074609201 -0.17323361 -0.5533334
-0.0025131351 -0.17329624 -0.55353332
0.0024384556 -0.17340022 -0.55386668
0.0074967681 -0.17300646 -0.55394739
0.012241615 -0.17300646 -0.55394733
0.022256084 -0.17320783 -0.55399996
0.032018512 -0.17349045 -0.55392855
0.037085261 -0.17378277 -0.5535
0.042301379 -0.17381366 -0.55345452
0.047824331 -0.1736692 -0.55366665
-0.25717407 -0.17274116 -0.55375016
-0.24749912 -0.17276603 -0.55343342
-0.24247573 -0.17266873 -0.55306906
-0.21246794 -0.17219615 -0.55319989
-0.18751177 -0.17281078 -0.55332249
-0.18255579 -0.17267397 -0.55341387
-0.17758602 -0.17264012 -0.55303347
-0.16245826 -0.17299436 -0.55372733
-0.14265715 -0.17286603 -0.5537501
-0.12721875 -0.17265488 -0.55337054
-0.12227657 -0.17275736 -0.5534001
-0.1075467 -0.17294429 -0.55399996
-0.21727596 -0.17195916 -0.55313051
-0.26748461 -0.17724866 -0.55214292
0.067615107 -0.17733788 -0.55220008
0.07258404 -0.17741299 -0.55243349
0.077580281 -0.17754202 -0.55283344
0.08253926 -0.17757423 -0.55293345
-0.05780986 -0.1763314 -0.55215001
-0.052972306 -0.17623897 -0.55210537
-0.017323606 -0.17636335 -0.55224997
-0.012382627 -0.17633133 -0.55215019
0.0074119372 -0.17652293 -0.55204552
0.012433183 -0.17663404 -0.55208689
0.017240414 -0.17670922 -0.55204177
0.02204662 -0.17655201 -0.55213636
0.027124217 -0.17636338 -0.55225015
0.032200195 -0.17641509 -0.55219054
0.037372947 -0.17636797 -0.55219066
0.042660069 -0.17628045 -0.55227274
0.047866534 -0.17636336 -0.55224997
0.052805174 -0.17636338 -0.55225003
0.057743825 -0.17636336 -0.55225015
0.062740967 -0.17670922 -0.55204183
-0.15260071 -0.1753251 -0.55210006
-0.10741085 -0.17571527 -0.55221432
-0.10245311 -0.17592995 -0.55225003
-0.097356349 -0.17591593 -0.55240005
-0.23747773 -0.17254105 -0.55255187
-0.23259792 -0.17201008 -0.55259991
-0.20750241 -0.17256784 -0.55280006
-0.20255911 -0.17256801 -0.55280006
-0.19742802 -0.17251727 -0.55248392
-0.1924751 -0.17255029 -0.55299997
-0.22738743 -0.17192537 -0.55244452
-0.22223039 -0.17157951 -0.55242866
-0.27356371 -0.18074396 -0.55170006
0.088489257 -0.18028176 -0.55180007
0.092461407 -0.18051523 -0.55176926
0.09736564 -0.18074498 -0.55140007
-0.09216658 -0.17608294 -0.55188894
-0.087373219 -0.17620368 -0.55175006
-0.082564667 -0.17617182 -0.55189484
-0.07247214 -0.1761381 -0.55178946
-0.067636512 -0.17620368 -0.55174994
-0.022081207 -0.17606527 -0.55183339
0.0024298392 -0.17626739 -0.55195016
-0.26249027 -0.17585437 -0.55200005
-0.25789261 -0.17584741 -0.55166674
-0.16222101 -0.17576824 -0.55171436
-0.15696366 -0.17536952 -0.55157155
-0.14777806 -0.17571768 -0.55200005
-0.14270061 -0.17529325 -0.55200005
-0.12737535 -0.17546247 -0.55166674
-0.12262528 -0.17578842 -0.55200005
-0.11767486 -0.1757672 -0.55193341
-0.11279311 -0.17539936 -0.55190909
-0.077539988 -0.17578842 -0.55200005
-0.062600464 -0.17589223 -0.55193758
-0.047736283 -0.17572644 -0.55200005
-0.043015607 -0.17582402 -0.55133343
-0.031940527 -0.17539935 -0.55190915
-0.027178377 -0.17572471 -0.55180007
-0.0074429419 -0.17578842 -0.55200005
-0.0025639664 -0.17598383 -0.55188233
0.067468062 -0.18041693 -0.55100006
0.072395526 -0.18041693 -0.55100006
0.077322997 -0.18041693 -0.55100006
0.082250468 -0.18041693 -0.55100006
-0.25318694 -0.17584209 -0.55100006
-0.24788992 -0.17547117 -0.55100006
-0.24493344 -0.17547116 -0.551
-0.20206445 -0.17547116 -0.551
-0.18580382 -0.17547116 -0.551
-0.18284734 -0.17547117 -0.55100006
-0.17791986 -0.17547117 -0.55100006
-0.17249966 -0.17547117 -0.55100006
-0.16670987 -0.17584209 -0.55100006
-0.13751462 -0.17547117 -0.55100006
-0.13258716 -0.17547117 -0.55100006
-0.037651263 -0.17580087 -0.55100006
0.061843351 -0.17921238 -0.5496667
0.027617494 -0.17883213 -0.54935306
0.032876037 -0.17888382 -0.54933333
0.037778951 -0.17884031 -0.54920006
0.047585554 -0.17877503 -0.54900014
0.052526295 -0.17888381 -0.54933339
0.05746698 -0.17897113 -0.54960006
-0.23198152 -0.17449979 -0.54949999
-0.22755885 -0.17449979 -0.54949999
-0.22246455 -0.17419477 -0.54961538
-0.2179279 -0.17412214 -0.54964292
-0.21288064 -0.17438832 -0.5496667
-0.27142835 -0.18273339 -0.54888898
0.087469518 -0.18264024 -0.54815149
-0.26589555 -0.17959832 -0.54850006
0.016901262 -0.17917967 -0.54838467
-0.26204529 -0.1783907 -0.54900002
-0.25750697 -0.17857714 -0.54839993
-0.25251344 -0.17836776 -0.54811996
-0.17260797 -0.1780256 -0.54821873
-0.16763705 -0.17816494 -0.54810715
-0.14236216 -0.17800809 -0.54816675
-0.1324185 -0.17804089 -0.54826671
-0.12750772 -0.17812833 -0.54823339
-0.12251691 -0.1785378 -0.54827994
-0.11758048 -0.17848611 -0.54811996
-0.10249861 -0.17851232 -0.54819989
-0.097631998 -0.17857714 -0.54840004
-0.092716508 -0.17867868 -0.54833341
-0.082387887 -0.1788498 -0.54813635
-0.07739716 -0.17851238 -0.54819989
-0.062499329 -0.17868242 -0.54824007
-0.052385945 -0.17883772 -0.5480476
-0.047591541 -0.17851172 -0.54820001
-0.04268948 -0.17851213 -0.54820007
-0.037685256 -0.17821144 -0.54825002
-0.032728381 -0.17809562 -0.54833335
-0.027573414 -0.17842309 -0.54803705
-0.0073926728 -0.17852505 -0.54824001
-0.0024467814 -0.1787032 -0.54826093
0.0024125827 -0.17895585 -0.54805005
0.022469323 -0.17893948 -0.54885721
0.042567514 -0.17879483 -0.54835296
-0.24765101 -0.17775668 -0.54806882
-0.24241292 -0.17708674 -0.54825002
-0.1525858 -0.17785117 -0.54806262
-0.2376644 -0.17699873 -0.54803437
0.092476107 -0.18318777 -0.54780763
0.097470596 -0.18333931 -0.54791999
-0.26731667 -0.18254223 -0.54732144
0.052319128 -0.18259656 -0.54716659
0.057212304 -0.18259655 -0.54716659
0.062402878 -0.18261981 -0.54749995
0.067466967 -0.18277088 -0.54764503
0.072530754 -0.18276055 -0.5477097
0.077600934 -0.1827614 -0.54780638
0.082608752 -0.1828512 -0.5479334
0.0072584609 -0.17910358 -0.54800004
0.012038647 -0.17918092 -0.54794121
-0.16275017 -0.17830472 -0.54782605
-0.14740823 -0.17836514 -0.54774994
-0.10761153 -0.17825498 -0.54772419
-0.087513588 -0.1789396 -0.54799998
-0.072610959 -0.1787599 -0.54780948
-0.067519397 -0.17888515 -0.54776192
-0.057375528 -0.17893957 -0.54800004
-0.022442466 -0.17869395 -0.54762501
-0.017190287 -0.1789396 -0.54799998
-0.012289648 -0.17893957 -0.54800004
-0.22240978 -0.17762579 -0.54712898
-0.20247693 -0.1776014 -0.54787874
-0.19753177 -0.17746139 -0.54799992
-0.19254948 -0.17743416 -0.54799998
-0.18753003 -0.1772296 -0.54796779
-0.18243882 -0.17746347 -0.54799998
-0.17751718 -0.17786793 -0.54773331
-0.15749608 -0.17781492 -0.5477857
-0.13733406 -0.17793867 -0.54799992
-0.1124612 -0.17792733 -0.54765522
-0.23243248 -0.17681332 -0.54709095
-0.21234472 -0.17687924 -0.54724133
-0.20735314 -0.17692713 -0.54781824
-0.27054366 -0.18694976 -0.54614288
-0.26258576 -0.18214338 -0.54629159
0.022824481 -0.18219498 -0.54619324
0.027802275 -0.18226521 -0.54616642
0.032702722 -0.18235402 -0.54643327
0.037493598 -0.18222484 -0.54657137
0.042518698 -0.18203475 -0.54643476
0.047386017 -0.18244207 -0.5467
0.018159967 -0.18193367 -0.5461303
-0.22730529 -0.17716525 -0.54696292
-0.21747214 -0.17753869 -0.54682148
-0.26756847 -0.1863538 -0.546
-0.26419491 -0.18564095 -0.546
0.067832373 -0.18564095 -0.546
0.072715133 -0.18564095 -0.546
0.077597886 -0.18564095 -0.546
0.082480639 -0.18564095 -0.546
0.0873634 -0.18564095 -0.546
0.092246152 -0.18564095 -0.546
0.097128905 -0.18564095 -0.546
-0.25758439 -0.18156947 -0.546
-0.25284252 -0.18110764 -0.546
-0.15091503 -0.18172026 -0.546
-0.14945018 -0.18172024 -0.546
-0.087439217 -0.18110764 -0.546
-0.0773075 -0.18110764 -0.546
-0.072790958 -0.18123017 -0.546
-0.032386158 -0.18110766 -0.546
-0.02786961 -0.18123017 -0.546
-0.022498582 -0.18123017 -0.546
-0.017127549 -0.18123017 -0.546
-0.012244794 -0.18123017 -0.546
0.0027696756 -0.18110764 -0.546
0.007286224 -0.18123017 -0.546
0.012168978 -0.18123017 -0.546
-0.24954665 -0.18074007 -0.546
-0.14114952 -0.18074007 -0.546
-0.13724332 -0.18074007 -0.546
-0.13236056 -0.18074007 -0.546
-0.12747781 -0.18074007 -0.546
-0.12259505 -0.18074007 -0.546
-0.1177123 -0.18074007 -0.546
-0.11282954 -0.18074007 -0.546
-0.10745852 -0.18074009 -0.546
-0.10208748 -0.18074007 -0.546
-0.09720473 -0.18074007 -0.546
-0.09232197 -0.18074007 -0.546
-0.082719222 -0.18090343 -0.546
-0.06790819 -0.18074007 -0.546
-0.062537163 -0.18074009 -0.546
-0.057166137 -0.18074007 -0.546
-0.052283384 -0.18074007 -0.546
-0.047400627 -0.18074007 -0.546
-0.042517874 -0.18074007 -0.546
-0.037635118 -0.18074007 -0.546
-0.0076875566 -0.18090343 -0.546
-0.0024792855 -0.18074007 -0.546
-0.21253604 -0.17943066 -0.54500008
-0.2609522 -0.18453535 -0.54466671
0.038952656 -0.18432255 -0.54500002
0.042364322 -0.18432255 -0.54500002
-0.25757885 -0.1839236 -0.5444001
-0.1325271 -0.1831008 -0.54427993
-0.10756739 -0.18303347 -0.54408002
0.012135547 -0.18366429 -0.54449999
0.016589489 -0.18375807 -0.54457152
-0.17243706 -0.18253992 -0.54406667
-0.15256239 -0.18272611 -0.54406893
-0.12236399 -0.18299517 -0.54421735
-0.24567795 -0.17943066 -0.54500002
-0.24264297 -0.17934836 -0.54475003
-0.23744339 -0.17910145 -0.54400009
-0.2274767 -0.17929898 -0.54460001
-0.20717482 -0.17943066 -0.54500002
-0.1871922 -0.17943066 -0.54500002
-0.18280578 -0.17943066 -0.54500002
-0.1798815 -0.17943066 -0.54500002
-0.16038625 -0.17943066 -0.54500002
-0.1589241 -0.17943066 -0.54500002
-0.23230533 -0.17877686 -0.54450005
-0.26692355 -0.18864268 -0.54373342
0.022340627 -0.18496095 -0.54400003
0.05493525 -0.18496095 -0.54400003
0.057610929 -0.18496095 -0.54400003
-0.2523405 -0.18328506 -0.54369575
-0.12732327 -0.18307635 -0.54400003
-0.067543544 -0.18317731 -0.54306668
-0.062836282 -0.18313798 -0.54346436
-0.052287266 -0.18308565 -0.54324144
-0.037546523 -0.18305352 -0.54321432
-0.032644253 -0.18321204 -0.54347831
-0.027716476 -0.18364258 -0.5430001
-0.022755835 -0.18363261 -0.54319239
-0.017570455 -0.18364966 -0.54346162
-0.012195636 -0.18342708 -0.5438
-0.0072528683 -0.1830591 -0.5439167
0.0022618682 -0.18325809 -0.54395449
0.0072588669 -0.18347879 -0.54395002
-0.18745494 -0.18227789 -0.5431515
-0.18241934 -0.18230517 -0.54336667
-0.17750606 -0.18269013 -0.54345953
-0.16740343 -0.18264581 -0.54374999
-0.16239579 -0.18273279 -0.54335141
-0.15734592 -0.18282537 -0.5433889
-0.14717714 -0.18269148 -0.54384619
-0.14251262 -0.18247469 -0.54362082
-0.13748677 -0.18292175 -0.54396302
-0.11744104 -0.18299143 -0.54374087
-0.11237435 -0.18293889 -0.54380006
-0.10266413 -0.18296604 -0.54388005
-0.097612329 -0.18274893 -0.54346156
-0.092558451 -0.18277372 -0.54342318
-0.087521479 -0.18295309 -0.54308707
-0.057616722 -0.18290116 -0.54400003
-0.0024677049 -0.18285766 -0.54356003
-0.26236603 -0.18777871 -0.54287088
-0.25753731 -0.18778543 -0.54203707
0.017676985 -0.18706019 -0.54248279
0.022823013 -0.18712345 -0.54211539
0.037381314 -0.18731119 -0.54258817
0.042325996 -0.18749334 -0.54248649
0.04746256 -0.18748216 -0.54275668
0.052551884 -0.18728313 -0.54248655
0.062563576 -0.18715312 -0.54239398
0.067477413 -0.18789408 -0.54238713
0.072517693 -0.18795331 -0.54264522
0.077462517 -0.18776533 -0.54219353
0.082541414 -0.18790041 -0.54267752
0.087651402 -0.18786302 -0.54287505
0.092519753 -0.18786146 -0.54227597
0.097402856 -0.18781494 -0.54261291
0.027655512 -0.18674366 -0.54260719
0.032485396 -0.18698384 -0.54279995
-0.077424377 -0.18343104 -0.54278582
-0.07238552 -0.18362917 -0.54296011
-0.047364976 -0.18310341 -0.54270971
-0.042357225 -0.18314579 -0.54274201
-0.24726427 -0.18265046 -0.54256666
-0.24257216 -0.18248059 -0.54220003
-0.22253983 -0.18208106 -0.54243749
-0.20742597 -0.18227749 -0.54208124
-0.197321 -0.18236531 -0.54210526
-0.19252481 -0.1824096 -0.54275769
-0.082165532 -0.18288225 -0.54250014
-0.21757253 -0.18176638 -0.54288453
-0.20249462 -0.18179283 -0.54233342
-0.25316027 -0.18706633 -0.54120004
-0.062244706 -0.18711962 -0.54123813
-0.05767414 -0.1870596 -0.54159999
-0.053022012 -0.18710341 -0.54119051
-0.036956444 -0.1872897 -0.54104346
-0.032558732 -0.18707719 -0.54141676
-0.017338935 -0.18718266 -0.54133338
-0.012147912 -0.18708608 -0.54168004
-0.0072354525 -0.18744372 -0.54155177
-0.0024580946 -0.18745224 -0.54133344
0.0023839958 -0.18704455 -0.54156005
0.0072308527 -0.18714139 -0.54184002
0.012386674 -0.1872392 -0.54182142
0.057631746 -0.18743829 -0.54161298
-0.13753173 -0.18601082 -0.54137504
-0.13260081 -0.18611062 -0.54166675
-0.12750256 -0.18600699 -0.54118752
-0.12240446 -0.18639615 -0.54155552
-0.11749045 -0.18691003 -0.54148149
-0.11268498 -0.18686637 -0.54168189
-0.10739883 -0.1860877 -0.54160011
-0.10246325 -0.18668862 -0.5412609
-0.097516768 -0.18699795 -0.54111111
-0.09256734 -0.1868571 -0.54125005
-0.087692037 -0.18629207 -0.54152942
-0.1425945 -0.18584284 -0.54106247
-0.23750246 -0.18212467 -0.54188579
-0.23234691 -0.18201415 -0.54184866
-0.22745612 -0.18227614 -0.54191905
-0.21237853 -0.18212377 -0.542
-0.26694959 -0.19102077 -0.54070002
-0.26193556 -0.19038676 -0.54000008
0.051633857 -0.19038676 -0.54000008
0.069018617 -0.19038676 -0.54000008
0.076745167 -0.19038676 -0.54000008
-0.077346891 -0.18710515 -0.54084206
-0.072454207 -0.18726279 -0.54071426
-0.027552227 -0.18711911 -0.54083329
-0.022612745 -0.18715727 -0.5409444
-0.18755266 -0.1862182 -0.54078948
-0.18278201 -0.18623275 -0.54075009
-0.17708018 -0.18601054 -0.5406667
-0.17243311 -0.18614818 -0.54083335
-0.08289732 -0.18614124 -0.54100001
-0.067286327 -0.18685332 -0.54100001
-0.047731146 -0.18670648 -0.54075003
-0.042450644 -0.18682934 -0.54076469
-0.19184104 -0.18562211 -0.54055554
-0.16792336 -0.18579142 -0.54050004
-0.15243587 -0.18588212 -0.54100001
-0.14759782 -0.18588212 -0.54099995
-0.25936005 -0.19038676 -0.54000002
0.04970222 -0.19038676 -0.54000002
0.072720915 -0.19054833 -0.54000002
0.087369181 -0.19038676 -0.54000002
0.090749547 -0.19038676 -0.54000002
-0.10752689 -0.18809898 -0.53900009
-0.20739897 -0.18631527 -0.54000002
-0.15746608 -0.18602446 -0.54000002
-0.20334251 -0.18553974 -0.54000002
-0.16245615 -0.18570131 -0.54000002
-0.26651573 -0.1974946 -0.53806674
-0.26667231 -0.19366273 -0.53900003
-0.26252198 -0.1925748 -0.5386399
-0.2573483 -0.1924213 -0.53830296
-0.11716719 -0.18906657 -0.53900003
-0.09788657 -0.18906657 -0.53900003
-0.078176588 -0.18905757 -0.53870004
-0.072821759 -0.18906657 -0.53900003
-0.057397272 -0.18906657 -0.53900003
-0.032332461 -0.18906657 -0.53900003
-0.017871996 -0.18906657 -0.53900003
-0.012569825 -0.18906657 -0.53900003
-0.0091957161 -0.18906657 -0.53900003
0.0023726556 -0.18906657 -0.53900003
0.0071928105 -0.18906657 -0.53900003
0.012494981 -0.18906657 -0.53900003
0.017797152 -0.18906657 -0.53900003
0.022617308 -0.18906657 -0.53900003
0.032257617 -0.18906657 -0.53900003
0.035149708 -0.18906657 -0.53900003
0.061660565 -0.18906657 -0.53900003
-0.25097471 -0.18829249 -0.53900003
-0.18769732 -0.1888459 -0.53822219
-0.18249488 -0.18883544 -0.53868759
-0.17736652 -0.18835129 -0.53852165
-0.17221159 -0.18863149 -0.53841174
-0.16731469 -0.18847699 -0.53852171
-0.16256574 -0.18800709 -0.53873903
-0.14761904 -0.18850635 -0.53839993
-0.14229406 -0.18855117 -0.53871417
-0.13734812 -0.18849461 -0.53874999
-0.13253018 -0.18849462 -0.53874999
-0.12771225 -0.18849461 -0.53874999
-0.12285244 -0.18858492 -0.53878957
-0.11174452 -0.18858278 -0.53900003
-0.10306823 -0.18870372 -0.53900003
-0.09224011 -0.18892835 -0.53900003
-0.087282233 -0.18824786 -0.53900003
-0.082214035 -0.18850446 -0.53877777
-0.06751959 -0.18858276 -0.53900003
-0.062538773 -0.1889053 -0.53900003
-0.052255772 -0.1889053 -0.53900003
-0.047573954 -0.18868268 -0.53890914
-0.042512272 -0.18873973 -0.53885722
-0.038680207 -0.18899606 -0.53880006
-0.027650028 -0.18879013 -0.53900003
-0.023105307 -0.18879013 -0.53900003
0.027299743 -0.18879013 -0.53900003
-0.24741207 -0.18745308 -0.53820682
-0.20767529 -0.18774024 -0.53861535
-0.20242961 -0.18741795 -0.53848368
-0.19735745 -0.18732257 -0.53816658
-0.23333292 -0.18422854 -0.53900003
-0.22176455 -0.18422854 -0.53900003
-0.21308827 -0.18422854 -0.53900003
-0.21721219 -0.18379849 -0.53900003
-0.20186421 -0.18381386 -0.53900003
-0.1986278 -0.18326093 -0.53900003
-0.25246301 -0.19246495 -0.53725803
0.067432083 -0.19201124 -0.53744823
0.072562151 -0.19241735 -0.53733331
0.07750538 -0.19213031 -0.53714275
0.087641656 -0.19253528 -0.53757685
0.092599981 -0.19237915 -0.53768563
0.097664036 -0.19205478 -0.53767747
-0.1174219 -0.191258 -0.53711534
-0.1124498 -0.19132277 -0.53719234
-0.10745355 -0.19134608 -0.5371539
-0.097523347 -0.19125347 -0.53700012
-0.072556593 -0.1912681 -0.53703994
-0.067696288 -0.19134462 -0.53746164
-0.062589794 -0.19132429 -0.5372963
-0.057405349 -0.19138762 -0.53707415
-0.052389611 -0.19128224 -0.53708005
-0.047671162 -0.19137923 -0.53712511
-0.017806865 -0.19126785 -0.53703994
-0.012533142 -0.19140889 -0.53743327
-0.0072514727 -0.19153912 -0.53780007
-0.0024425131 -0.19152471 -0.5377599
0.0071674017 -0.19128229 -0.53707999
0.012465233 -0.19150358 -0.53770006
0.017751886 -0.19148223 -0.53763998
0.022550166 -0.191397 -0.53739995
0.027341103 -0.1917709 -0.53710002
0.032255616 -0.19196241 -0.53741926
0.0375183 -0.19181913 -0.5374285
0.042656831 -0.19148844 -0.53734612
0.047487661 -0.191587 -0.5377084
0.052500904 -0.19174437 -0.53763634
0.057397794 -0.19161205 -0.53770363
0.062485207 -0.19154201 -0.5378077
0.082458891 -0.19190675 -0.53731251
-0.19244717 -0.18819483 -0.53767747
-0.15758057 -0.18865569 -0.53773075
-0.15253253 -0.18862517 -0.53753835
-0.24249877 -0.18760943 -0.53745943
-0.23752445 -0.18742432 -0.53732347
-0.21250239 -0.18731411 -0.53762853
-0.2274579 -0.18637249 -0.53703845
-0.26247722 -0.19733775 -0.53650004
-0.2479016 -0.19188802 -0.53622228
-0.14239904 -0.19138065 -0.53600013
-0.13250627 -0.19107977 -0.53605562
-0.12750711 -0.19155246 -0.5363043
-0.12215187 -0.1913235 -0.53645456
-0.1024361 -0.1913278 -0.537
-0.092583694 -0.19112463 -0.53684616
-0.087514333 -0.19119218 -0.53692591
-0.082403846 -0.191515 -0.53643495
-0.077111132 -0.19124207 -0.53622735
-0.042770792 -0.19139147 -0.53691316
-0.037489168 -0.19122855 -0.53692859
-0.032318287 -0.19130014 -0.53692305
-0.027481822 -0.19111425 -0.53683329
-0.022521041 -0.19111428 -0.53683329
0.0023638518 -0.1912535 -0.53699988
-0.20743237 -0.19086181 -0.53606254
-0.20272855 -0.19074838 -0.53625005
-0.19732541 -0.19069801 -0.53633344
-0.18250416 -0.19086182 -0.5360626
-0.17259642 -0.19089976 -0.53600007
-0.23270756 -0.18696754 -0.53696674
-0.22233671 -0.18660277 -0.53689295
-0.21747258 -0.18685718 -0.53696769
-0.26606685 -0.201325 -0.53600001
-0.26306224 -0.20048268 -0.53525001
-0.2580305 -0.19633868 -0.53570586
-0.24293712 -0.19158949 -0.53542864
-0.19254874 -0.19120306 -0.53550005
-0.15759051 -0.19120306 -0.53550005
-0.15247583 -0.19107845 -0.53527272
-0.14696042 -0.19125387 -0.5358125
-0.13759305 -0.19136278 -0.53595006
-0.23861843 -0.19086492 -0.53500009
-0.21157487 -0.19086424 -0.53590006
-0.18747298 -0.19098051 -0.53586686
-0.1775495 -0.19089973 -0.53600001
-0.16734603 -0.19098054 -0.53586668
-0.16253099 -0.19089973 -0.53600001
-0.25360948 -0.19534691 -0.53500003
-0.26507407 -0.20265083 -0.53400004
-0.26208195 -0.20248847 -0.53345007
-0.26029864 -0.19977492 -0.53400004
-0.25702381 -0.19876286 -0.53385711
-0.25247818 -0.19773377 -0.533077
-0.25122529 -0.19498177 -0.53400004
-0.24703893 -0.19414254 -0.53392303
0.01763206 -0.19402315 -0.53399998
0.022407502 -0.19402316 -0.53399998
0.027423933 -0.19441326 -0.53363639
0.032636669 -0.1943593 -0.53372729
0.037688911 -0.19450246 -0.53399998
0.042589564 -0.19403945 -0.53385711
0.052492775 -0.19402315 -0.53400004
0.057745766 -0.19402313 -0.53399998
0.062521204 -0.19402313 -0.53399998
0.067296647 -0.19450246 -0.53399998
0.072549634 -0.19450246 -0.53399998
0.077802621 -0.19450247 -0.53399998
0.082578056 -0.19450246 -0.53399998
0.087141261 -0.19455571 -0.53399998
0.093084022 -0.19474211 -0.53399998
0.097859465 -0.19450247 -0.53399998
-0.24219777 -0.19367658 -0.5334
-0.16269432 -0.19345045 -0.53303862
-0.15743874 -0.1935339 -0.5332858
-0.14284994 -0.19390482 -0.53305882
-0.13773921 -0.19378097 -0.53350002
-0.13259737 -0.19356491 -0.53340006
-0.11257289 -0.19374011 -0.53322226
-0.10740425 -0.19387721 -0.53360003
-0.10254297 -0.19370751 -0.53313339
-0.07747931 -0.19381657 -0.53358829
-0.072274327 -0.19394611 -0.53362501
-0.067312047 -0.19385298 -0.53353339
-0.062556289 -0.19390142 -0.53366673
-0.05778382 -0.1939014 -0.53366673
-0.052534115 -0.19390142 -0.53366673
-0.047284413 -0.19390143 -0.53366673
-0.042511947 -0.19390143 -0.53366673
-0.037739489 -0.19390142 -0.53366673
-0.03248978 -0.19390139 -0.53366667
-0.027109215 -0.19369835 -0.53343749
-0.022574723 -0.19367562 -0.53337502
-0.017695153 -0.19390143 -0.53366673
-0.012447841 -0.19394198 -0.53377783
-0.0071957433 -0.1939014 -0.53366673
-0.0024217684 -0.19378032 -0.53333336
0.0023496554 -0.19390154 -0.53366673
0.0076012081 -0.19396226 -0.53383332
0.012848591 -0.19390139 -0.53366673
0.04722812 -0.19397444 -0.53386664
-0.21731965 -0.18922998 -0.53400004
-0.21349931 -0.18923 -0.53400004
-0.23140721 -0.18899031 -0.53400004
-0.22783397 -0.18893096 -0.53383332
-0.22278969 -0.18879426 -0.53399998
-0.25751123 -0.20197529 -0.53245455
-0.087426446 -0.19400768 -0.53240919
-0.23725548 -0.19300885 -0.53277785
-0.20758229 -0.19328505 -0.53207415
-0.20235571 -0.1930175 -0.53224134
-0.19756728 -0.19300245 -0.53216666
-0.18748358 -0.19329301 -0.53200006
-0.17272288 -0.19325095 -0.5322001
-0.16744463 -0.19326034 -0.53211987
-0.15250413 -0.19343309 -0.53248149
-0.14762494 -0.19367003 -0.53272003
-0.12744413 -0.19399039 -0.5326001
-0.12238783 -0.19398411 -0.53278959
-0.11789813 -0.19381943 -0.53282356
-0.097491518 -0.19382545 -0.53233337
-0.092537068 -0.19393985 -0.53252387
-0.082621023 -0.193896 -0.53277779
-0.23251055 -0.19205078 -0.53226686
-0.21729045 -0.19237009 -0.53216231
-0.21262582 -0.19279937 -0.53213334
-0.22246504 -0.19180188 -0.5321213
-0.2473852 -0.19727054 -0.53132141
0.082631163 -0.19721237 -0.53137928
0.087530509 -0.19746697 -0.53170967
0.092414781 -0.19722973 -0.53180003
0.097553 -0.19708732 -0.53173083
-0.11257847 -0.19626787 -0.53100008
-0.072612874 -0.19635782 -0.53142858
-0.067507304 -0.1963855 -0.53131825
-0.062385116 -0.19635361 -0.53104758
-0.032445535 -0.19614428 -0.53109527
-0.012396368 -0.19601683 -0.5316112
-0.0070457314 -0.19602647 -0.53131258
0.0023388497 -0.19637816 -0.53130001
0.0075636948 -0.19634412 -0.53120834
0.012784387 -0.19626729 -0.53100008
0.017533092 -0.19626755 -0.53100008
0.022411278 -0.19662625 -0.53113049
0.027515449 -0.19681732 -0.53119999
0.03275938 -0.19645208 -0.53150004
0.037512463 -0.19645202 -0.53149998
0.042509455 -0.19647153 -0.53131819
0.052457172 -0.19608553 -0.53164715
0.057627812 -0.19621015 -0.53181255
0.062426142 -0.19619906 -0.531389
0.067645073 -0.19677038 -0.53152174
0.072405651 -0.19683112 -0.53195995
0.077474169 -0.19654426 -0.53175002
-0.10766466 -0.19575514 -0.53106254
-0.077338435 -0.1959569 -0.53112507
-0.037550911 -0.19579168 -0.53100008
-0.017606733 -0.19579168 -0.53100014
-0.19252703 -0.1933147 -0.53196299
-0.18243995 -0.19314906 -0.53180772
-0.1775502 -0.19327365 -0.53184623
-0.2273459 -0.19226098 -0.53162503
-0.25304112 -0.20120835 -0.53020006
-0.24237572 -0.19675271 -0.53091663
-0.23804787 -0.19621666 -0.53027284
-0.097255051 -0.19601047 -0.53030008
-0.057468016 -0.19617555 -0.53074998
-0.052721638 -0.19617556 -0.53074998
-0.047500622 -0.19617552 -0.53074998
-0.027360495 -0.19633786 -0.5309546
-0.022351585 -0.19623104 -0.53089994
-0.0024108086 -0.19623086 -0.5309
0.047473881 -0.19609222 -0.53100002
-0.21663973 -0.19542412 -0.53000009
-0.21258944 -0.19585662 -0.53000009
-0.16196702 -0.19545731 -0.53066671
-0.15803029 -0.19553776 -0.53054553
-0.14207192 -0.1956902 -0.53092319
-0.13741742 -0.19580512 -0.53087509
-0.13243997 -0.19566877 -0.53066677
-0.12713838 -0.19538787 -0.53033334
-0.12444963 -0.19531533 -0.53100002
-0.11684129 -0.19593225 -0.53064299
-0.10245562 -0.19582613 -0.53094119
-0.092478171 -0.19593671 -0.53010005
-0.087753259 -0.1959736 -0.53020006
-0.082312465 -0.19587985 -0.53050011
-0.042457435 -0.19597232 -0.53088242
-0.24981742 -0.20018138 -0.53000003
-0.24272303 -0.19932885 -0.5290001
0.067376137 -0.19909143 -0.52900016
0.072579943 -0.19909143 -0.52900016
0.097416267 -0.19932887 -0.52900016
0.04253982 -0.198854 -0.52900016
0.077547207 -0.19885401 -0.52900016
-0.20716038 -0.19542412 -0.53000003
-0.20242071 -0.19542412 -0.53000003
-0.198155 -0.19542412 -0.53000003
-0.16545127 -0.19542412 -0.53000003
-0.15218021 -0.19542412 -0.53000003
-0.14744054 -0.19542412 -0.53000003
-0.2513566 -0.20205913 -0.52900004
-0.24732961 -0.20160097 -0.52873343
-0.24669686 -0.19961376 -0.52900004
-0.0023986858 -0.19904466 -0.52825004
0.0023253346 -0.19904467 -0.5282501
0.0075209774 -0.19902894 -0.52820843
0.012717155 -0.19902578 -0.52820021
0.017444028 -0.19906355 -0.52830005
0.022308597 -0.19931464 -0.52810526
0.027664229 -0.1995071 -0.52837515
0.037196219 -0.19903444 -0.52842122
0.082345515 -0.19953236 -0.52900004
0.08748173 -0.1998037 -0.52900004
0.092617944 -0.19953237 -0.52900004
-0.23708071 -0.1985987 -0.52843493
-0.10743044 -0.1985814 -0.52800012
-0.10255358 -0.19858158 -0.52828008
-0.097642906 -0.19852398 -0.52840751
-0.042389486 -0.19875629 -0.52818531
-0.037358914 -0.1985815 -0.52828008
-0.017520525 -0.19862668 -0.52840012
-0.012795163 -0.19862671 -0.52840012
-0.007677664 -0.19865833 -0.52831042
0.032475688 -0.19890168 -0.52881265
0.047913458 -0.19873436 -0.52868432
0.052491195 -0.19869637 -0.52837515
0.057173494 -0.19872554 -0.52836007
0.062399365 -0.19857751 -0.52858353
-0.23184235 -0.19410576 -0.52900004
-0.22853085 -0.19410577 -0.52900004
-0.22190784 -0.19410576 -0.52900004
-0.21859632 -0.19410576 -0.52900004
-0.17081597 -0.19410576 -0.52900004
-0.16939676 -0.19410576 -0.52900004
-0.24241403 -0.20113041 -0.52769232
0.067399658 -0.20106688 -0.52733332
0.072442785 -0.20110765 -0.5272941
0.077631526 -0.20109509 -0.52756244
0.082594581 -0.20132054 -0.52800006
0.087570257 -0.20119654 -0.52752942
0.042522062 -0.20090602 -0.52705878
0.092683688 -0.20099875 -0.52731258
-0.21236116 -0.19833082 -0.52761549
-0.20752814 -0.19801044 -0.52790338
-0.13739853 -0.19821811 -0.52703708
-0.13247429 -0.19820021 -0.52746165
-0.11779013 -0.19804567 -0.5272069
-0.11257099 -0.19876134 -0.52772731
-0.092431121 -0.1983714 -0.52762973
-0.087377362 -0.19827349 -0.5272693
-0.082629956 -0.19838527 -0.52776009
-0.077714168 -0.19838463 -0.52785194
-0.072431162 -0.19874461 -0.52722734
-0.06749367 -0.19876122 -0.52750009
-0.062562205 -0.19881225 -0.52786374
-0.057363085 -0.19881323 -0.52740926
-0.052394014 -0.19874263 -0.52745008
-0.047676787 -0.19874261 -0.52745008
-0.032695312 -0.19876574 -0.52780956
-0.027505143 -0.19874083 -0.52760875
-0.022360928 -0.1989997 -0.52795249
-0.23234789 -0.19752696 -0.52800006
-0.22751792 -0.19743274 -0.52775002
-0.22246152 -0.19729857 -0.52765799
-0.21752456 -0.19779624 -0.52780575
-0.20246977 -0.19767444 -0.52758074
-0.18754484 -0.19714448 -0.52731568
-0.18251236 -0.19729827 -0.52718914
-0.17751814 -0.19727309 -0.52718931
-0.17264409 -0.19728701 -0.52736121
-0.16751908 -0.19721822 -0.52717972
-0.16246499 -0.19782257 -0.5271613
-0.15741074 -0.19794661 -0.52737939
-0.15239368 -0.1978903 -0.52774298
-0.1473503 -0.19790071 -0.52768981
-0.14258546 -0.19797426 -0.52727592
-0.12752222 -0.19786477 -0.52767748
-0.12256027 -0.19752741 -0.52771443
-0.23783433 -0.20104067 -0.52636367
-0.012742427 -0.2011075 -0.5262
0.022548743 -0.20109481 -0.52616668
0.037558045 -0.20117466 -0.52658337
0.047331303 -0.20102619 -0.52684611
0.052478425 -0.20124748 -0.52645457
0.057816472 -0.20112775 -0.52666664
0.062860787 -0.20111248 -0.5268333
0.032612525 -0.20097962 -0.52692854
0.097519241 -0.20093922 -0.52699995
-0.19733882 -0.19744515 -0.52680647
-0.19255055 -0.19726807 -0.52697313
-0.0075627579 -0.20103125 -0.52600002
0.017367909 -0.20103125 -0.52600002
0.027716488 -0.20103125 -0.52600002
-0.23242171 -0.20081423 -0.52554554
-0.22772558 -0.20087089 -0.52544451
-0.21753769 -0.20076363 -0.52530003
-0.14745809 -0.20064907 -0.5250001
-0.11774571 -0.20031247 -0.5250001
