# .PCD v0.7 - Point Cloud Data file format
VERSION 0.7
FIELDS x y z
SIZE 4 4 4
TYPE F F F
COUNT 1 1 1
WIDTH 1385
HEIGHT 1
VIEWPOINT 0 0 0 1 0 0 0
POINTS 1385
DATA ascii
0.015164839 -0.11491113 0.8530001
0.025145913 -0.11515609 0.85407156
0.035053834 -0.11508417 0.85354161
0.044989217 -0.11435498 0.8538
0.054919746 -0.11436377 0.85386682
0.064647421 -0.11365733 0.85334486
0.075204037 -0.11469448 0.85347241
0.082813613 -0.11492921 0.85360867
0.2087982 -0.11188932 0.85550004
0.21524256 -0.11231803 0.85538447
0.22438894 -0.11273694 0.85523516
0.23432069 -0.11210269 0.85472733
0.24504809 -0.11163458 0.85650009
0.25419512 -0.11144491 0.85739994
0.26284298 -0.11328801 0.85544431
-0.13115506 -0.10724078 0.8530001
-0.12607525 -0.10748874 0.85126662
-0.11116947 -0.10939002 0.85100001
-0.1047353 -0.10869562 0.85099995
-0.096101083 -0.10893171 0.85099995
-0.085294455 -0.10939002 0.85100001
-0.07540106 -0.10939003 0.85100001
-0.063916422 -0.10883449 0.85099995
-0.054853253 -0.10862617 0.85099995
-0.047699567 -0.10908449 0.85100001
-0.031261317 -0.10939002 0.85100001
-0.025173077 -0.10939003 0.85100001
-0.015279684 -0.10939002 0.85100001
-0.0038642341 -0.10939002 0.85100001
0.0052681272 -0.10939003 0.85100001
0.018205637 -0.10939002 0.85100001
0.025054909 -0.10939003 0.85100001
0.041797571 -0.10786232 0.85100001
0.085937314 -0.10939002 0.85100001
0.20740519 -0.10858999 0.85157144
0.21531245 -0.10862619 0.85099995
0.22520582 -0.10862617 0.85099995
0.23548889 -0.10819697 0.85137486
0.24498466 -0.10806412 0.85194731
0.2549713 -0.10702582 0.8512857
0.2621955 -0.10844519 0.85214293
-0.33189362 -0.13042405 0.86900008
-0.32412231 -0.13042405 0.86900008
-0.28526598 -0.13042405 0.86900008
-0.27360904 -0.13042404 0.86900002
-0.26506066 -0.13042404 0.86900008
-0.25418088 -0.13081403 0.86900002
-0.24827471 -0.13104804 0.86900008
-0.12440067 -0.13042404 0.86900008
-0.11507514 -0.13042404 0.86900008
-0.10497249 -0.13042404 0.86900008
-0.095646963 -0.13081403 0.86900002
-0.084767193 -0.13042404 0.86900008
-0.076218784 -0.13042404 0.86900002
-0.062230498 -0.13042404 0.86900002
-0.055236354 -0.13042404 0.86900008
-0.045133702 -0.13042404 0.86900008
-0.03503105 -0.13042404 0.86900008
-0.024669357 -0.13094404 0.86900002
-0.014825749 -0.13042404 0.86900008
-0.0047230963 -0.13042404 0.86900008
0.0046024285 -0.13042404 0.86900008
0.015063754 -0.13114405 0.8690002
0.024030603 -0.13094404 0.86900002
0.034910388 -0.13042404 0.86900008
0.045013037 -0.13042404 0.86900008
0.059778448 -0.13042404 0.86900002
0.065995455 -0.13094404 0.86900002
0.075320989 -0.13120404 0.8690002
-0.34038687 -0.12226878 0.86100006
-0.33486509 -0.1250018 0.86451608
-0.32536042 -0.1251481 0.8648386
-0.31527761 -0.12520938 0.86494118
-0.30531204 -0.12423362 0.86451995
-0.2952708 -0.12494122 0.86512893
-0.28530386 -0.12526926 0.86499995
-0.27511296 -0.12485486 0.86381257
-0.26496276 -0.12487945 0.86264503
-0.25491929 -0.12476745 0.86252934
-0.24651779 -0.12488348 0.86183333
-0.13179214 -0.12452476 0.86300004
-0.12496158 -0.12503318 0.86335486
-0.11509428 -0.12498529 0.86435282
-0.1051259 -0.12500776 0.86386681
-0.094958574 -0.12484368 0.86274296
-0.08490146 -0.12480423 0.86246657
-0.074831523 -0.12497857 0.86302918
-0.064932451 -0.12497085 0.86360013
-0.054898061 -0.12498272 0.86368555
-0.044874206 -0.1250284 0.86399984
-0.034791391 -0.12488569 0.86302865
-0.024739549 -0.12479421 0.86240017
-0.014706988 -0.12474447 0.86205697
-0.0046872245 -0.12479471 0.86240017
0.0052049737 -0.12475629 0.86276484
0.01519871 -0.12496693 0.8629033
0.024803951 -0.12474848 0.86277431
0.034863204 -0.12517786 0.86441171
0.044940557 -0.12496515 0.86425811
0.05496281 -0.12518285 0.86444116
0.064831607 -0.12500589 0.86386657
0.074785367 -0.1248566 0.86282855
0.082285054 -0.12427226 0.86325014
0.2079294 -0.12278145 0.8646
0.21511932 -0.1231016 0.86756527
0.22536433 -0.12159104 0.86761552
0.23450467 -0.1219991 0.86771452
0.2442226 -0.1221747 0.86787522
0.25454593 -0.12170461 0.86800003
0.26266879 -0.12215452 0.86750007
-0.34153059 -0.11981008 0.86000001
-0.33537799 -0.11981009 0.86000007
-0.32486725 -0.11981009 0.86000007
-0.31845823 -0.11981008 0.86000001
-0.29461682 -0.11981009 0.86000013
-0.28461879 -0.11981009 0.86000007
-0.27692801 -0.11981008 0.86000001
-0.13195668 -0.11942411 0.86000001
-0.12465043 -0.11981009 0.86000007
-0.11465241 -0.11981009 0.86000013
-0.10465439 -0.11981009 0.86000007
-0.098501764 -0.11981008 0.86000001
-0.046973497 -0.11981008 0.86000001
-0.03005377 -0.11981008 0.86000001
-0.024670225 -0.11981009 0.86000007
0.007631077 -0.11981008 0.86000001
0.015321864 -0.11981009 0.86000007
0.025319885 -0.11981009 0.86000013
0.035317905 -0.11981009 0.86000007
0.045315929 -0.11981009 0.86000013
0.055313952 -0.11981009 0.86000007
0.065666929 -0.11909754 0.85999995
0.072233677 -0.11981008 0.86000001
0.085308008 -0.11981008 0.86000001
0.20903483 -0.11578481 0.86066675
0.21498527 -0.1169816 0.86189491
0.22548069 -0.11741637 0.86225003
0.23531228 -0.11683099 0.86133343
0.24529339 -0.11601066 0.86130768
0.25540307 -0.11600628 0.8621304
0.26148203 -0.11717427 0.8622728
-0.33478534 -0.13438678 0.87490928
-0.32532397 -0.13356151 0.87442881
-0.31465718 -0.13280533 0.87438112
-0.30447233 -0.13361706 0.87528586
-0.29493058 -0.13342097 0.87388015
-0.28494737 -0.13400997 0.8743183
-0.2752361 -0.13398847 0.87418193
-0.26486009 -0.13440344 0.87510544
-0.25595918 -0.13548352 0.87621069
-0.24864395 -0.1345461 0.87550002
-0.13299625 -0.13438179 0.87514311
-0.12494771 -0.13452879 0.87484223
-0.11510296 -0.13514522 0.87512511
-0.10494914 -0.13449554 0.87465018
-0.09473034 -0.13569973 0.87604016
-0.084818974 -0.13521235 0.87532014
-0.074953616 -0.13497956 0.87515402
-0.065277696 -0.13471919 0.87468767
-0.055142593 -0.13476978 0.87490016
-0.045147851 -0.13452879 0.87484223
-0.035022724 -0.13433795 0.87465018
-0.024878548 -0.13516225 0.87529427
-0.01491615 -0.13515171 0.87432164
-0.0049599088 -0.13458721 0.87468427
0.0048399954 -0.13461174 0.87484229
0.014610653 -0.13606003 0.87604553
0.025330942 -0.13568105 0.87557161
0.034590982 -0.13472 0.87522751
0.04570061 -0.13418667 0.87520027
0.054891814 -0.13355772 0.8743602
0.065128773 -0.13541172 0.87528586
0.073249064 -0.1348097 0.87212515
0.21646437 -0.13288808 0.87408346
0.22558844 -0.13258888 0.87776941
0.23535848 -0.13248785 0.87750018
0.24500105 -0.13159966 0.87800014
0.25512108 -0.13188738 0.87800026
0.26417503 -0.13230702 0.87772745
-0.34044659 -0.1291606 0.87100005
-0.31084779 -0.1291606 0.87100005
-0.30539539 -0.1291606 0.87100017
-0.29994297 -0.1291606 0.87100005
0.21642242 -0.12812538 0.87140018
0.22538319 -0.12700844 0.8723079
0.23542187 -0.12724346 0.87245476
0.2451506 -0.12697466 0.87233347
0.25493649 -0.12685579 0.87272733
0.26356292 -0.12755306 0.87315398
-0.26349652 -0.15156782 0.88842857
-0.25782892 -0.15107439 0.8858
-0.062072702 -0.1509809 0.88900006
-0.054917589 -0.1509809 0.88900006
-0.031862225 -0.1509809 0.88900006
-0.024866117 -0.15161927 0.88900006
-0.017552 -0.1509809 0.88900006
-0.33378866 -0.1449527 0.88478261
-0.32533231 -0.14424047 0.88561749
-0.31486416 -0.1440277 0.88575757
-0.30483392 -0.14469834 0.88621843
-0.29519194 -0.14584461 0.88715607
-0.2846047 -0.14495875 0.88630778
-0.27488542 -0.14587386 0.88668948
-0.26501486 -0.14553018 0.88493341
-0.25585693 -0.1443226 0.88283342
-0.13338584 -0.14437622 0.88657892
-0.12469558 -0.14568558 0.88620013
-0.11497656 -0.14574353 0.88622594
-0.10498743 -0.14554724 0.88593739
-0.095119126 -0.14567372 0.88579977
-0.085154176 -0.14589572 0.88627273
-0.074865729 -0.14551638 0.88574982
-0.065012686 -0.14566229 0.88573313
-0.055047218 -0.14592464 0.88645452
-0.044761837 -0.14550571 0.88568717
-0.034687411 -0.14518385 0.88545454
-0.025376651 -0.14547032 0.88456678
-0.015093908 -0.1455238 0.88488567
-0.0048190104 -0.14584745 0.88686663
0.0046954495 -0.14583671 0.88679987
0.014992064 -0.1457015 0.88597119
0.025291614 -0.14569519 0.88593334
0.034930028 -0.14555772 0.88603234
0.044621579 -0.14488865 0.88560504
0.055124763 -0.14603879 0.88712502
0.064520329 -0.14505008 0.88685715
0.072109297 -0.14345358 0.88683337
0.22587885 -0.14200065 0.88818181
0.23605701 -0.14180434 0.889
0.24436048 -0.14193733 0.88900006
0.2541135 -0.14189894 0.88845456
0.26493609 -0.14182489 0.88787496
-0.33339661 -0.13929677 0.88000011
-0.32464799 -0.13810681 0.88000005
-0.31484672 -0.13760415 0.88000005
-0.30619013 -0.1379991 0.88000005
-0.29517263 -0.13918392 0.88000011
-0.28494212 -0.13918394 0.88000005
-0.27549854 -0.13918397 0.88000005
-0.26563123 -0.13924471 0.88000005
-0.25503749 -0.13918394 0.88000005
-0.13384499 -0.13839404 0.88000005
-0.12518838 -0.13918394 0.88000011
-0.11439574 -0.13974814 0.88000011
-0.10538312 -0.13931561 0.88000005
-0.094496787 -0.13997382 0.88000005
-0.08505322 -0.13997382 0.88000005
-0.074822694 -0.13997382 0.88000011
-0.064592153 -0.13997382 0.88000005
-0.054519009 -0.13934191 0.88000005
-0.044918049 -0.13918394 0.88000011
-0.035474483 -0.13892065 0.88000005
-0.025873518 -0.13934194 0.88000005
-0.015013415 -0.13997382 0.88000011
-0.0044251708 -0.13925576 0.88000005
0.0043029762 -0.13925576 0.88000005
0.014891223 -0.13997382 0.88000011
0.025121754 -0.13997382 0.88000005
0.034827638 -0.13927171 0.88000005
0.044795856 -0.138151 0.88000005
0.055026393 -0.13918394 0.88000005
0.064357542 -0.13929677 0.88000011
0.073292762 -0.13870858 0.88200003
0.2195019 -0.13681428 0.88000005
0.22544181 -0.13755696 0.88476473
0.23521416 -0.1377252 0.88584208
0.24542247 -0.13677511 0.88380003
0.25501975 -0.13727158 0.88452643
0.26349127 -0.13713181 0.88363159
-0.14220417 -0.1605698 0.89800006
-0.061094992 -0.1605698 0.89800006
-0.054670498 -0.1605698 0.89800012
-0.03138173 -0.1605698 0.89800006
-0.028169487 -0.16056982 0.89800012
-0.33309993 -0.15403537 0.89614296
-0.32506788 -0.15462852 0.89625019
-0.31496149 -0.15458496 0.89600003
-0.30494553 -0.15458515 0.89600027
-0.29528597 -0.15455815 0.89640021
-0.28516734 -0.15472333 0.89624
-0.27451041 -0.15481658 0.89474088
-0.26599362 -0.1559342 0.89450002
-0.25989437 -0.15503986 0.89400005
-0.14128248 -0.15477628 0.8955555
-0.13519374 -0.15414745 0.89570379
-0.12491627 -0.15440747 0.8949585
-0.11480837 -0.15527523 0.89563352
-0.1050092 -0.15536408 0.89583874
-0.094865859 -0.15508521 0.89509398
-0.084940173 -0.15528911 0.89540017
-0.07533136 -0.1552891 0.89540035
-0.065385744 -0.15564889 0.89538735
-0.054695498 -0.15566783 0.89438468
-0.044899736 -0.15527746 0.89533347
-0.035511043 -0.155461 0.89507169
-0.025236011 -0.15664302 0.89556539
-0.014403665 -0.15542512 0.8945359
-0.0048637483 -0.15520743 0.89493376
0.0047413143 -0.15524243 0.8951335
0.014855185 -0.15509441 0.89512146
0.025214681 -0.15546806 0.89556271
0.035144683 -0.15437196 0.89475006
0.04439282 -0.15377721 0.89410013
0.054796237 -0.15429834 0.89503866
0.06519983 -0.15468407 0.89584643
0.075522348 -0.15408514 0.89642876
0.083515547 -0.15348785 0.89726317
0.22868177 -0.15121633 0.89750004
0.23505764 -0.15207836 0.89783335
0.24412179 -0.15261689 0.898
0.25450799 -0.15250941 0.89800006
0.26551768 -0.15361208 0.89672732
-0.33710876 -0.14972106 0.89100003
-0.32515675 -0.14972106 0.89099997
-0.31479833 -0.14972106 0.89099997
-0.30762711 -0.14972106 0.89100003
-0.2908943 -0.14972106 0.89100003
-0.28531671 -0.14972106 0.89099997
-0.14157073 -0.14862026 0.89400005
-0.13592665 -0.14887829 0.89142859
-0.12914366 -0.14972106 0.89100003
0.066869438 -0.14972106 0.89100003
0.075421765 -0.14705521 0.89099991
0.080685817 -0.14781782 0.89400005
0.22749583 -0.14687435 0.89409989
0.23507087 -0.1464873 0.89431816
0.24527176 -0.14672436 0.89500004
0.25517973 -0.14700113 0.89585012
0.26412487 -0.14686234 0.893875
-0.34029266 -0.17050804 0.90800005
-0.33866864 -0.17050804 0.90800005
-0.33487785 -0.16501167 0.90493959
-0.32532376 -0.16524337 0.90624171
-0.31549698 -0.16478227 0.9067502
-0.30516139 -0.16533077 0.9064002
-0.29536706 -0.16451363 0.90603858
-0.28496 -0.16371438 0.90600002
-0.27438718 -0.16432741 0.90514302
-0.2685495 -0.1634049 0.90362507
-0.14133474 -0.16338694 0.90616673
-0.13467094 -0.16457854 0.90675032
-0.12529109 -0.16412589 0.90695012
-0.11480913 -0.1639818 0.90615004
-0.10535227 -0.16438347 0.90566677
-0.095374227 -0.16442652 0.90536016
-0.085211717 -0.16425189 0.90476018
-0.075072393 -0.16425714 0.90400034
-0.06507811 -0.16442701 0.90468192
-0.055177834 -0.16531694 0.90633339
-0.045109369 -0.16469583 0.90488899
-0.035635121 -0.16474177 0.90481502
-0.024310904 -0.1644638 0.90513062
-0.014630612 -0.16426425 0.90500021
-0.0049199741 -0.16432446 0.90533352
0.00458044 -0.16363077 0.9050526
0.014524 -0.16363931 0.90605557
0.025046889 -0.1644049 0.90578592
0.035290852 -0.16421296 0.90595466
0.045309156 -0.16362849 0.90600002
0.055019587 -0.16391891 0.90580004
0.064763464 -0.16364898 0.90611106
0.074887551 -0.16372888 0.90610009
0.084619641 -0.16447377 0.90616679
0.094309308 -0.16302614 0.90759116
0.10593561 -0.16185424 0.90778577
0.11517937 -0.16226937 0.90750009
0.12146687 -0.1612712 0.90800011
0.22893971 -0.16299498 0.90700006
0.23489955 -0.1636285 0.90600002
0.24506056 -0.16222771 0.90612489
0.25413841 -0.16136166 0.90592307
0.26595098 -0.16347936 0.9064092
0.27087557 -0.16724798 0.90800011
-0.33542264 -0.15865439 0.90200007
-0.32518932 -0.15969107 0.902143
-0.31477016 -0.15972477 0.90233344
-0.30463374 -0.15948878 0.90100002
-0.29496485 -0.15948878 0.90100002
-0.28550938 -0.15960678 0.90166676
-0.27804422 -0.15948877 0.90100002
-0.14106774 -0.15948877 0.90100002
-0.1348327 -0.15974164 0.90242869
-0.1244227 -0.15984279 0.90300006
-0.11876997 -0.15984279 0.90300006
0.035418749 -0.15960678 0.90166676
0.045763712 -0.15905419 0.90219992
0.054728031 -0.15948878 0.90100002
0.064396963 -0.15948878 0.90100002
0.074917577 -0.15958993 0.90157151
0.086654216 -0.15806268 0.90142858
0.093749374 -0.15803638 0.90425003
0.10572516 -0.15788639 0.9065001
0.11473407 -0.15731966 0.9052667
0.12146687 -0.15855448 0.90800011
0.22867775 -0.15620874 0.90383339
0.23470788 -0.15738928 0.90215391
0.24554369 -0.15617757 0.90211117
0.25520834 -0.15579338 0.90226322
0.26377437 -0.15696505 0.90259999
0.26756483 -0.1814498 0.91800004
-0.34139913 -0.17517631 0.91533339
-0.33523971 -0.17432702 0.91519254
-0.32466185 -0.17496718 0.91572398
-0.31495762 -0.17528203 0.91558611
-0.30487731 -0.17498045 0.91430008
-0.29516783 -0.17507938 0.91509682
-0.28485894 -0.17441341 0.915815
-0.27655625 -0.1746428 0.91600007
-0.1425776 -0.17402573 0.91636372
-0.1352381 -0.17389838 0.91609085
-0.12457563 -0.17365654 0.91600007
-0.11482806 -0.1737829 0.91666681
-0.10503216 -0.17302209 0.91700006
-0.095137849 -0.1729282 0.91650009
-0.085302576 -0.1729282 0.91650003
-0.075877115 -0.17354552 0.91650009
-0.065422192 -0.17373811 0.91694129
-0.055232462 -0.17402676 0.91665
-0.04512177 -0.17389841 0.91609108
-0.034955207 -0.17328097 0.91650015
-0.024648499 -0.17371972 0.91633344
-0.014818026 -0.1737829 0.91666681
-0.0049839797 -0.17384608 0.91700011
0.0043630209 -0.17347895 0.91680014
0.014707079 -0.173116 0.91750014
0.024530098 -0.17297515 0.91675013
0.034340151 -0.17283343 0.91600013
0.044245061 -0.173116 0.91750014
0.054939691 -0.1723859 0.9180001
0.065612003 -0.17320989 0.91800016
0.075359479 -0.17297515 0.91675007
0.085175306 -0.1729282 0.91650009
0.095010579 -0.1729282 0.91650009
0.10527793 -0.17234677 0.91668761
0.11446913 -0.17192525 0.91700006
0.12454548 -0.17167591 0.91671437
0.13378525 -0.17122971 0.91710007
0.14113909 -0.17073791 0.91800004
0.23627859 -0.17136 0.91628575
0.24541563 -0.17017995 0.91500008
0.25441656 -0.17017995 0.91500008
0.26586178 -0.17374241 0.91604769
-0.32232499 -0.16761637 0.91000003
-0.31523335 -0.16784975 0.91000003
-0.29434925 -0.16917603 0.91085726
-0.2849566 -0.16879645 0.91161543
-0.2763626 -0.16879845 0.91049999
-0.14317866 -0.16796306 0.91187507
-0.13515273 -0.16925 0.91000003
-0.12473618 -0.16859655 0.90999997
-0.11627274 -0.16859655 0.90999997
-0.10533693 -0.16972825 0.91257155
-0.094622836 -0.16952896 0.9115001
-0.084697597 -0.16925 0.91000003
-0.073304497 -0.16924998 0.91000003
-0.065200143 -0.16934298 0.91050005
-0.055496406 -0.16952899 0.91149998
-0.048076935 -0.16924998 0.91000003
-0.033428669 -0.16925 0.91000003
-0.024500273 -0.16943598 0.91100001
-0.014759945 -0.16980796 0.91300005
-0.0049622403 -0.16980796 0.91300005
0.0051981467 -0.16881178 0.91163629
0.014609126 -0.16871214 0.91149998
0.024361737 -0.16934298 0.91050005
0.035862677 -0.16901095 0.9106667
0.045584213 -0.16871214 0.91149998
0.05538404 -0.16893132 0.91180003
0.06514743 -0.16871217 0.91149998
0.074718297 -0.16881177 0.91163635
0.084753528 -0.16962197 0.91200006
0.095495082 -0.16804902 0.91107148
0.10397782 -0.16658507 0.91104996
0.11488248 -0.16747615 0.91160011
0.1257365 -0.16483082 0.91161549
0.13430037 -0.1656521 0.91443485
0.14113909 -0.16826592 0.91800004
0.22936617 -0.16652994 0.91300005
0.23455276 -0.16853109 0.91199994
0.24510548 -0.16732544 0.91245461
0.25498205 -0.1667375 0.91299999
0.26334792 -0.1669502 0.91193748
0.12444706 -0.15944825 0.91000003
0.15595478 -0.19092309 0.92800003
-0.34059757 -0.1836637 0.92500007
-0.33439562 -0.18506938 0.92462963
-0.32474262 -0.18519063 0.92429984
-0.31466162 -0.1844501 0.92392009
-0.30503654 -0.18454169 0.92361522
-0.29484662 -0.18489216 0.92424124
-0.28515083 -0.18457226 0.92537516
-0.2786476 -0.18446428 0.92622226
-0.15027441 -0.18675825 0.92800003
-0.14403391 -0.18382764 0.9264617
-0.13534386 -0.18325046 0.92616683
-0.12494504 -0.18224636 0.92665005
-0.1144035 -0.18230005 0.92650014
-0.1049697 -0.18198691 0.92660028
-0.094569802 -0.18239847 0.92700028
-0.084228106 -0.18278986 0.92657155
-0.074972048 -0.1827336 0.92628574
-0.064656153 -0.18220168 0.92600018
-0.055208523 -0.18273288 0.92628598
-0.044805914 -0.18313122 0.92650008
-0.034869611 -0.18233287 0.9266668
-0.024924055 -0.18233283 0.92666692
-0.014977743 -0.18230005 0.92650014
-0.0050368523 -0.18315719 0.92662495
0.0045750062 -0.18263309 0.92650002
0.014378751 -0.18186678 0.92671448
0.024792112 -0.18146798 0.92650026
0.034755222 -0.18156546 0.92700022
0.045161825 -0.18186675 0.92671448
0.054649316 -0.18239844 0.92700016
0.064574637 -0.18233287 0.9266668
0.074567318 -0.18161422 0.92725015
0.084491365 -0.18156546 0.92700016
0.094390146 -0.181468 0.92650008
0.10449763 -0.18137789 0.92675018
0.11586805 -0.18053755 0.92600012
0.12500915 -0.18057655 0.92620009
0.13581112 -0.18244195 0.92800015
0.1447659 -0.18374406 0.92655158
0.15481816 -0.18556269 0.92617226
0.16010424 -0.18759124 0.92800009
0.23678599 -0.18126066 0.92800009
0.24558282 -0.18092749 0.92800009
0.2547116 -0.18092747 0.92800009
0.26595712 -0.18325864 0.92575014
-0.34096172 -0.17995265 0.92300004
-0.3349171 -0.17936777 0.92000002
-0.32915795 -0.17936777 0.92000002
-0.29048941 -0.17936777 0.92000002
-0.28473029 -0.17936777 0.92000002
-0.27777511 -0.1796602 0.92150003
-0.14521663 -0.17844561 0.92119998
-0.13532259 -0.17897929 0.92224997
-0.12552762 -0.17829572 0.92300004
-0.11549556 -0.17810252 0.92200005
-0.10554578 -0.17718017 0.92150009
-0.095224395 -0.17726596 0.92161554
-0.08494252 -0.17718017 0.92149997
-0.073879927 -0.17773794 0.92224997
-0.065153174 -0.17772862 0.92128575
-0.054166555 -0.17871016 0.92133331
-0.043920435 -0.17905806 0.92180008
-0.034015667 -0.17734532 0.92150003
-0.024813622 -0.17819914 0.92250001
-0.014905442 -0.17810254 0.92200005
-0.0050165909 -0.17829572 0.92300004
0.0057058646 -0.17755203 0.92199993
0.01479531 -0.17745249 0.92291665
0.024667606 -0.17726021 0.92191672
0.034554232 -0.17721236 0.9216668
0.044522561 -0.17751686 0.92325014
0.054688692 -0.17646399 0.92252642
0.064664021 -0.17713854 0.92161548
0.074967206 -0.17727676 0.92200005
0.085247099 -0.17735511 0.92207706
0.095528916 -0.17718016 0.92150009
0.10554363 -0.17738897 0.92258346
0.1159058 -0.17684856 0.9230001
0.12539946 -0.17684855 0.92300004
0.13565758 -0.17633903 0.92315006
0.14556481 -0.17543705 0.9224667
0.15369497 -0.1761765 0.92300016
0.23678879 -0.17720985 0.92518193
0.24506795 -0.17610133 0.92450017
0.25512061 -0.17601109 0.92420006
0.26303485 -0.17657748 0.92266679
0.146383 -0.16945831 0.92000002
0.1513194 -0.16945831 0.92000002
-0.28414965 -0.20168057 0.93800008
-0.33392537 -0.1947827 0.93450004
-0.32502922 -0.19456887 0.9356817
-0.31505537 -0.19469321 0.93677777
-0.30516604 -0.19509345 0.93599981
-0.29458487 -0.19542179 0.93533325
-0.28473052 -0.19559088 0.93407136
-0.27866384 -0.19509764 0.93314296
-0.15105492 -0.19466434 0.93800002
-0.14483282 -0.19336128 0.93575001
-0.13518217 -0.19314635 0.93581808
-0.1246687 -0.19295548 0.93514299
-0.11537689 -0.19327527 0.93586946
-0.10560646 -0.19270796 0.93666673
-0.095523156 -0.19263937 0.93633348
-0.085413903 -0.19250281 0.93566686
-0.075380221 -0.19252546 0.9357779
-0.065424211 -0.19277655 0.93699998
-0.055694472 -0.19214457 0.93707711
-0.045327809 -0.19198555 0.93725002
-0.035226583 -0.19259405 0.93611127
-0.025197964 -0.19274223 0.93683326
-0.014936208 -0.19254057 0.93687499
-0.0050863298 -0.19250278 0.93566674
0.0053169532 -0.19303273 0.93590474
0.014677892 -0.1930411 0.93664992
0.024564432 -0.19239895 0.93680012
0.035436548 -0.19205044 0.93661559
0.044934042 -0.19266546 0.93694127
0.054957837 -0.19214898 0.93628585
0.065501258 -0.19255657 0.93641186
0.07530915 -0.1918326 0.93649995
0.085927576 -0.19281732 0.93719995
0.097071648 -0.19331723 0.93799996
0.10557054 -0.19371954 0.93749994
0.11535612 -0.19296448 0.93705261
0.12543817 -0.19249175 0.93561107
0.13520463 -0.19235167 0.93541193
0.14513919 -0.19381221 0.93515807
0.1545019 -0.19410785 0.93261117
0.16153084 -0.19316827 0.93240005
0.24573506 -0.19177301 0.93666679
0.25410104 -0.19171754 0.93800008
0.26630178 -0.19158594 0.93666673
-0.32026058 -0.18966505 0.93000007
-0.31610218 -0.18966505 0.93000007
-0.30362701 -0.18966506 0.93000013
-0.29115182 -0.18966505 0.93000007
-0.28449842 -0.18966506 0.93000019
-0.27867666 -0.18966505 0.93000007
-0.14560822 -0.18757814 0.93000019
-0.13410698 -0.18764117 0.93100017
-0.12501758 -0.18746398 0.93150014
-0.11502135 -0.18746398 0.93150014
-0.10458744 -0.18707658 0.9320668
-0.095174834 -0.18774812 0.93291658
-0.085821368 -0.18764116 0.93100005
-0.074188925 -0.18770856 0.93133342
-0.065040193 -0.18746398 0.93150008
-0.055120207 -0.18773261 0.93283355
-0.045127045 -0.18778269 0.93308347
-0.035025276 -0.18731236 0.93075013
-0.025055256 -0.18746398 0.93150008
-0.01505902 -0.18746398 0.93149996
-0.0050595901 -0.18809658 0.93050003
0.0055993432 -0.1875703 0.93120015
0.015357044 -0.18695059 0.93206245
0.024957128 -0.18686326 0.9326666
0.03496588 -0.18686323 0.93266666
0.044528827 -0.18694992 0.93206251
0.054914609 -0.18746398 0.93149996
0.064947471 -0.18756416 0.9320001
0.075000882 -0.18686327 0.9326669
0.085009634 -0.18686321 0.93266678
0.095018387 -0.18686327 0.93266678
0.10531506 -0.18680629 0.9332633
0.11517371 -0.18625276 0.93379182
0.12496516 -0.18590865 0.93208349
0.1339262 -0.185838 0.93063176
0.14443947 -0.18903899 0.93000019
0.16211264 -0.18966505 0.93000007
0.23813657 -0.18492359 0.93133342
0.24514042 -0.18601874 0.93262506
0.25544986 -0.18626143 0.9343912
0.2634609 -0.18617551 0.9336316
-0.34002358 -0.21035439 0.94800007
-0.33832803 -0.21035439 0.94800007
-0.29763481 -0.21035439 0.94800013
-0.34111789 -0.2043972 0.94400007
-0.33528408 -0.20443393 0.94421208
-0.32513463 -0.20470038 0.94517249
-0.31511489 -0.20460472 0.94499981
-0.30484354 -0.20451957 0.94460011
-0.29494929 -0.2047486 0.94370836
-0.28671694 -0.20351681 0.94000006
-0.15271325 -0.20319857 0.94781828
-0.14492016 -0.20445742 0.94553834
-0.13535936 -0.2047243 0.94556648
-0.12570241 -0.20500511 0.94742858
-0.11527218 -0.20466326 0.94725001
-0.10570037 -0.20312139 0.9471429
-0.094427772 -0.20303632 0.94720006
-0.084783651 -0.20340508 0.94733334
-0.074552611 -0.20322645 0.94649994
-0.064600565 -0.20403606 0.94682598
-0.054517359 -0.20344609 0.94705886
-0.045683108 -0.20299985 0.9471429
-0.035634741 -0.20248318 0.94700003
-0.025472172 -0.20248321 0.94700003
-0.01531499 -0.20340507 0.94733334
-0.0056322529 -0.20287828 0.9471429
0.0050167041 -0.20255415 0.94733334
0.015178103 -0.20248318 0.94700003
0.025668798 -0.20282684 0.94707698
0.035515737 -0.20397234 0.94733334
0.04597782 -0.20412572 0.94709098
0.05524306 -0.20421427 0.94733322
0.064693667 -0.20404178 0.9466666
0.07455419 -0.20405251 0.94586939
0.084250435 -0.20379679 0.94627279
0.094795212 -0.20335735 0.94711113
0.10507549 -0.20333242 0.94615787
0.11468761 -0.20352364 0.94629985
0.12528856 -0.20314775 0.94712502
0.13493133 -0.20281693 0.94685721
0.14559774 -0.20248318 0.94700003
0.15281655 -0.20222783 0.94660008
0.2466367 -0.20014334 0.94800007
0.25511444 -0.20014334 0.94800013
0.2666066 -0.20184374 0.94666672
-0.34051666 -0.19845437 0.94000006
-0.32454485 -0.19845437 0.94000006
-0.31613865 -0.19845437 0.94000006
-0.15157902 -0.19796096 0.94300008
-0.14465204 -0.19845437 0.94000006
-0.13382865 -0.19819084 0.94075006
-0.12561572 -0.19850752 0.94224995
-0.11389049 -0.19839427 0.94085723
-0.10446869 -0.1979273 0.94150007
-0.094365135 -0.1979273 0.94149995
-0.084655896 -0.1980328 0.94163638
-0.074998654 -0.1979273 0.94150019
-0.065345578 -0.19782181 0.94136363
-0.055442456 -0.19738646 0.94247067
-0.04560386 -0.19739845 0.94299996
-0.03544838 -0.19803196 0.94200003
-0.025344629 -0.19808474 0.94225001
-0.015472788 -0.19769989 0.94214278
-0.0051171402 -0.19792728 0.94149995
0.0041510467 -0.19852524 0.94300008
0.015767258 -0.19815938 0.94180006
0.025740335 -0.19773632 0.94300002
0.035105251 -0.19749793 0.94300002
0.045831274 -0.19819379 0.94369239
0.055824827 -0.19768831 0.94337511
0.065042511 -0.19806652 0.94349998
0.075198911 -0.19731657 0.94216663
0.084271625 -0.19712573 0.94171441
0.093535036 -0.19673814 0.94187498
0.10427897 -0.19866548 0.9410001
0.11507966 -0.19803272 0.94120008
0.12454503 -0.1979273 0.94149995
0.13464859 -0.1979273 0.94150007
0.1440268 -0.1985075 0.94225001
0.1529277 -0.19845437 0.94000006
0.24700959 -0.19674154 0.94354552
0.25540406 -0.19608933 0.94281256
0.26433325 -0.19609 0.94388247
-0.29159722 -0.23100774 0.95600003
-0.33453831 -0.21357949 0.95522225
-0.32474717 -0.21409029 0.9561764
-0.31526822 -0.21471615 0.95586962
-0.30502564 -0.21433619 0.95400006
-0.29728642 -0.21403255 0.95300007
-0.16275816 -0.2153869 0.9575001
-0.15522575 -0.21503711 0.95731986
-0.1451313 -0.21424146 0.95733327
-0.13526945 -0.21490476 0.95687485
-0.12503201 -0.2149602 0.95712489
-0.11513083 -0.21459505 0.95714289
-0.10453149 -0.21504341 0.95749986
-0.094833277 -0.2150867 0.95714283
-0.08536119 -0.21456647 0.95586944
-0.075328678 -0.21479243 0.956375
-0.06509202 -0.21487699 0.95674992
-0.054818209 -0.2148488 0.95662493
-0.04446283 -0.21415004 0.95677769
-0.034705292 -0.2134807 0.95749986
-0.025358045 -0.21310733 0.95722723
-0.015681492 -0.21366791 0.95599997
-0.00519838 -0.21399726 0.95666665
0.00529698 -0.21398467 0.95742095
0.015006154 -0.21387322 0.95765001
0.02560826 -0.21407123 0.95700002
0.035022318 -0.21407126 0.95699996
0.044666957 -0.21427588 0.95710534
0.054713741 -0.21495883 0.95712495
0.064688981 -0.21477826 0.95736361
0.075324647 -0.21429493 0.95799989
0.085620895 -0.21433192 0.95816654
0.094950214 -0.21335582 0.95853841
0.10456209 -0.21365601 0.95899999
0.11485343 -0.21365601 0.95899999
0.12536797 -0.21225281 0.95809996
0.13522428 -0.21160427 0.95749998
0.14478081 -0.21180235 0.95840007
0.15430358 -0.21193443 0.95899999
0.16030686 -0.21107361 0.95900005
0.25292897 -0.21107361 0.95900005
0.26622587 -0.21182436 0.95850009
-0.16159616 -0.20903723 0.95233339
-0.15569557 -0.2075247 0.95166683
-0.14889613 -0.20931284 0.95100003
-0.12185089 -0.20789668 0.95233339
-0.11418605 -0.20789668 0.95233345
-0.10478903 -0.20783919 0.95206684
-0.095961928 -0.20823932 0.95233351
-0.085111812 -0.20845924 0.95100015
-0.074985079 -0.20867932 0.95200014
-0.064209983 -0.20944627 0.95271444
-0.054552626 -0.20867932 0.95200014
-0.044254694 -0.20764951 0.95190918
-0.034998596 -0.20714457 0.9528001
-0.025643632 -0.20724228 0.95325011
-0.015009736 -0.20866077 0.95227277
-0.0047471914 -0.20803818 0.95200014
0.0047946367 -0.20782726 0.95247066
0.015692422 -0.20776038 0.95268762
0.025212787 -0.20773397 0.95158833
0.0356532 -0.2076056 0.95100015
0.04427927 -0.20833728 0.95100009
0.054363277 -0.20931284 0.95100009
0.064568765 -0.20931284 0.95100009
0.074774258 -0.20931284 0.95100009
0.085899241 -0.2090511 0.9517501
0.095265314 -0.20846458 0.95180005
0.10512507 -0.20877694 0.9520911
0.1160138 -0.20879862 0.95211112
0.12425741 -0.20803939 0.95220006
0.13534506 -0.20732759 0.95233333
0.14494325 -0.20736991 0.95383346
0.15481117 -0.20736977 0.95490909
0.24812232 -0.20569688 0.95444447
0.25537845 -0.20584249 0.95533323
0.26404485 -0.20554796 0.95417392
-0.29489946 -0.23207559 0.96400005
-0.33415484 -0.22252975 0.96574998
-0.32519269 -0.22297138 0.9653126
-0.31478778 -0.22346561 0.96465254
-0.30539346 -0.22316734 0.96475029
-0.17308545 -0.22207108 0.96640009
-0.16451 -0.22256087 0.96400011
-0.15500996 -0.22325389 0.96373951
-0.14483275 -0.22376762 0.96472031
-0.13499379 -0.22442318 0.96511149
-0.12510914 -0.22384714 0.96487534
-0.11556758 -0.22281085 0.96466678
-0.10507708 -0.22328749 0.9656502
-0.095271543 -0.22297719 0.96430016
-0.084879994 -0.22286651 0.96488243
-0.075121261 -0.22272365 0.964706
-0.065229304 -0.22339651 0.96454561
-0.055283241 -0.22360127 0.96475023
-0.045130335 -0.22355551 0.96504378
-0.03463852 -0.22313558 0.9665001
-0.025145356 -0.22238211 0.96700013
-0.015608682 -0.22203851 0.96550012
-0.0052475827 -0.22203851 0.96550012
0.0056339656 -0.22262801 0.96580011
0.014983895 -0.22245958 0.96571428
0.025290273 -0.22230648 0.96563637
0.034487806 -0.22302103 0.96600002
0.044854272 -0.22302103 0.96600014
0.055173844 -0.22283013 0.96516693
0.065587193 -0.22302103 0.96600002
0.075050928 -0.22203849 0.96550006
0.084616289 -0.22221032 0.96625006
0.094365329 -0.22220853 0.96700013
0.10543434 -0.22151414 0.96700013
0.11408201 -0.22151414 0.96700007
0.13656591 -0.22151414 0.96700007
0.14521359 -0.22151414 0.96700013
0.15559079 -0.22151414 0.96700013
0.1625089 -0.22151414 0.96700007
-0.33458444 -0.21855091 0.96160001
-0.32663894 -0.21841452 0.96100003
-0.1733457 -0.21909636 0.96400005
-0.16800055 -0.21886909 0.96300006
-0.14616482 -0.21841452 0.96100003
-0.1126482 -0.21841452 0.96100008
-0.040458549 -0.21841452 0.96100003
-0.034492485 -0.21875545 0.9625001
-0.025053892 -0.21896 0.96340007
-0.015535931 -0.21841453 0.96100008
-0.0052231248 -0.21841453 0.96100008
0.0050896825 -0.21841453 0.96100008
0.015402488 -0.21841453 0.96100008
0.024855895 -0.21841453 0.96100008
0.034309302 -0.21841453 0.96100008
0.04376271 -0.21841453 0.96100008
0.068685323 -0.21841452 0.96100003
0.075560525 -0.21841453 0.96100008
0.085176386 -0.21882363 0.96280003
0.09533181 -0.21813357 0.96280015
0.10497206 -0.21794967 0.9627502
0.11509379 -0.21821636 0.96427286
0.1251723 -0.21751995 0.96418756
0.13469544 -0.21751086 0.96417665
0.14476308 -0.21736939 0.96400005
0.15510806 -0.21736939 0.96400005
0.16431496 -0.21627457 0.96490031
0.24907517 -0.2121741 0.96400005
0.25546873 -0.21374437 0.96500003
0.26432309 -0.21542545 0.96460021
-0.30705366 -0.24159092 0.97800004
-0.33455262 -0.23316053 0.977
-0.32504597 -0.23408087 0.97687495
-0.31428915 -0.2354162 0.97512507
-0.30573946 -0.23481728 0.97380978
-0.29809806 -0.23264939 0.97000015
-0.19415033 -0.23249321 0.97800004
-0.18515997 -0.23246005 0.97743744
-0.1750772 -0.23315853 0.97661537
-0.16466029 -0.23344548 0.97663629
-0.15504694 -0.23315601 0.97609091
-0.1447698 -0.23379244 0.9747501
-0.13485713 -0.23386584 0.9738335
-0.12572129 -0.23430745 0.97480959
-0.11586346 -0.23376048 0.97671437
-0.10485922 -0.23333323 0.97649997
-0.09445145 -0.23351175 0.97724998
-0.084774196 -0.23333323 0.97650015
-0.074872576 -0.23418829 0.97563159
-0.06483043 -0.23407467 0.97515798
-0.055361409 -0.23341033 0.97581834
-0.045477413 -0.23333322 0.97649997
-0.035006113 -0.23339272 0.97675002
-0.024018576 -0.23302181 0.97739995
-0.015087334 -0.23332152 0.97745454
-0.0049737059 -0.23326838 0.97707689
0.0048359996 -0.23181003 0.97661549
0.015585488 -0.23194508 0.97661543
0.024231626 -0.23302181 0.97740006
0.034216546 -0.2335147 0.9780001
0.046014372 -0.23246038 0.97757155
0.054607667 -0.23265491 0.97733337
0.065450035 -0.23213467 0.97684616
0.075071134 -0.23257616 0.97700012
0.084998071 -0.2324369 0.97687501
0.094613053 -0.23283231 0.97764713
0.10485657 -0.23187551 0.97775
0.11495124 -0.23179035 0.97772729
0.12500037 -0.23105673 0.9780001
0.13462101 -0.23105673 0.9780001
0.15736069 -0.23105673 0.97800004
0.16173372 -0.23105673 0.97800004
0.26668608 -0.23105673 0.97800004
0.27018452 -0.23105673 0.97800004
-0.33519119 -0.22762136 0.97083348
-0.32482785 -0.22853228 0.97100013
-0.31495136 -0.2291667 0.97000009
-0.30419502 -0.22829604 0.97000021
-0.29875898 -0.22858626 0.97000003
-0.19101828 -0.22859766 0.97500002
-0.18554147 -0.22809833 0.97500008
-0.17516325 -0.22693935 0.97105271
-0.16574794 -0.22834778 0.97083348
-0.15452668 -0.22924547 0.97033346
-0.1457988 -0.2291667 0.97000003
-0.13365451 -0.2291667 0.97000003
-0.12411257 -0.2291667 0.97000009
-0.11417633 -0.2283752 0.97000021
-0.10567927 -0.2285137 0.97000015
-0.094870105 -0.22865915 0.9708001
-0.085165069 -0.2285323 0.97100013
-0.07466796 -0.22829604 0.97000021
-0.065126024 -0.2291667 0.97000009
-0.055584088 -0.22916672 0.97000015
-0.044555094 -0.22891796 0.97000015
-0.034788009 -0.22845356 0.97066683
-0.024887508 -0.22717158 0.97040021
-0.014698531 -0.22743601 0.97057164
-0.0055308952 -0.22746187 0.97058833
0.0042698998 -0.22684492 0.97000015
0.016240695 -0.22672883 0.97000021
0.025256775 -0.22719464 0.9703638
0.034666318 -0.2285323 0.97100013
0.044687111 -0.22843164 0.97090924
0.056190509 -0.2283109 0.9708001
0.064991333 -0.22742537 0.97000009
0.074927576 -0.22663383 0.97000021
0.084973052 -0.22663286 0.97033352
0.095627166 -0.22626621 0.97076941
0.1048234 -0.22634882 0.97237515
0.11488859 -0.22594441 0.9718948
0.12507056 -0.2252228 0.97175002
0.13488665 -0.22560775 0.97163159
0.14480655 -0.22632037 0.9722501
0.15489772 -0.22650313 0.97350013
0.16568397 -0.22586274 0.9745003
0.17489357 -0.22541749 0.9755187
0.18219763 -0.22587763 0.97661549
0.23869878 -0.22754534 0.97800004
0.24534038 -0.22507417 0.97775018
0.25443709 -0.22445339 0.97584021
0.26383048 -0.22357535 0.97393328
0.17221114 -0.21839611 0.97050005
0.24835616 -0.21912661 0.97700012
0.25368696 -0.218006 0.97200018
0.26103482 -0.21871869 0.97000003
0.26791674 -0.25140998 0.98900002
0.27008215 -0.25013894 0.98400003
-0.34182784 -0.24127987 0.98750007
-0.33491784 -0.24477623 0.98682612
-0.32534319 -0.24470116 0.9864763
-0.31540588 -0.24446569 0.98405576
-0.30934376 -0.24358577 0.98250008
-0.22316498 -0.24297823 0.98818195
-0.21552771 -0.24272838 0.98843765
-0.20500745 -0.24384192 0.98876935
-0.19510877 -0.24378827 0.98688239
-0.18554135 -0.24313375 0.98628581
-0.17481391 -0.24378926 0.98688889
-0.16468708 -0.24419625 0.98811769
-0.15500024 -0.24392138 0.98787516
-0.14499193 -0.24439403 0.98728579
-0.13471749 -0.24380466 0.98650014
-0.12474312 -0.24358763 0.98566681
-0.11479212 -0.24441731 0.98681819
-0.10464103 -0.24491023 0.98718196
-0.09500096 -0.24456485 0.987091
-0.08483234 -0.24478585 0.98733354
-0.075048812 -0.24455698 0.98640013
-0.065716863 -0.2440979 0.98670018
-0.05510531 -0.24394408 0.98794132
-0.044675808 -0.2435578 0.98774999
-0.035390031 -0.24392673 0.98744458
-0.024800709 -0.24398065 0.98766679
-0.015081696 -0.24396421 0.98760027
-0.0057008583 -0.24381039 0.98787504
0.0054924977 -0.24394408 0.98794121
0.014944563 -0.24396415 0.98760015
0.024962798 -0.24441731 0.98681831
0.035230834 -0.24506871 0.98776007
0.044773992 -0.24430026 0.98806262
0.054919425 -0.24414569 0.98757893
0.065007247 -0.2439771 0.98689479
0.074478179 -0.24324988 0.98650014
0.084708944 -0.24305265 0.98750013
0.094698519 -0.2424711 0.98771435
0.10584437 -0.24181682 0.98814285
0.11394908 -0.24118683 0.98833328
0.12552187 -0.24075732 0.98900002
0.13525072 -0.2407573 0.98900002
0.14457753 -0.24156435 0.98900008
0.1547084 -0.2407573 0.98900002
0.16443723 -0.24075732 0.98900002
0.17505054 -0.24075732 0.98900002
0.18477936 -0.2407573 0.98900002
0.19450822 -0.24164504 0.98900008
0.2051215 -0.24164502 0.98900008
0.214187 -0.2414231 0.98899996
0.22015698 -0.2407573 0.98900002
0.23696133 -0.2407573 0.98900002
0.24403687 -0.2407573 0.98900002
0.25288126 -0.2407573 0.98900002
0.26573774 -0.24454196 0.98525006
0.27101329 -0.24409309 0.98100007
-0.34061632 -0.23777367 0.98400003
-0.33559862 -0.23791258 0.98133343
-0.32579193 -0.23830667 0.98100007
-0.22188929 -0.23812085 0.98300004
-0.21602462 -0.23812085 0.98300004
-0.20416142 -0.23741312 0.98250008
-0.19574098 -0.23709439 0.98118752
-0.18561411 -0.23748903 0.98100007
-0.17552534 -0.23792928 0.98100007
-0.16512203 -0.23811185 0.98175001
-0.15470666 -0.23829441 0.98250008
-0.14500068 -0.23910196 0.98220009
-0.13692473 -0.23880984 0.98100007
-0.12201088 -0.23880985 0.98100013
-0.11460268 -0.23802716 0.98100007
-0.10534245 -0.23792927 0.98100007
-0.094909877 -0.2381727 0.98200005
-0.085244611 -0.23814841 0.98190004
-0.076392002 -0.23880985 0.98100007
-0.064109996 -0.23880985 0.98100007
-0.054135561 -0.2383413 0.9823637
-0.04486559 -0.23822141 0.98220009
-0.035167396 -0.23799014 0.98125005
-0.024669785 -0.23829445 0.98250008
-0.015004883 -0.23829447 0.98250002
-0.0053399792 -0.23829441 0.98250002
0.0054592402 -0.23741007 0.98205894
0.014450091 -0.23748821 0.98169237
0.024495903 -0.23792927 0.98100007
0.035541475 -0.23765625 0.98142862
0.04533292 -0.23715992 0.98188245
0.054770812 -0.2377391 0.9822858
0.064460658 -0.23745143 0.98175001
0.075378492 -0.23792927 0.98100007
0.085105039 -0.23814838 0.98190016
0.094823562 -0.23829441 0.98250008
0.10474259 -0.2368426 0.98160011
0.11506926 -0.23660314 0.98280001
0.12494686 -0.23611797 0.9844445
0.13516195 -0.23586422 0.98382366
0.14520036 -0.23484044 0.98295659
0.15482813 -0.23569466 0.98384213
0.16531129 -0.23526542 0.98419994
0.17508708 -0.23519024 0.98425025
0.18530214 -0.23488881 0.9844349
0.19460453 -0.23486659 0.98603845
0.20453984 -0.23476779 0.98620015
0.21465568 -0.23459408 0.98629636
0.22456069 -0.23601365 0.98876011
0.23516001 -0.23481031 0.98661298
0.24497326 -0.23428172 0.98414308
0.25534648 -0.23497677 0.98528016
0.26478454 -0.23465598 0.982364
0.27070293 -0.23670337 0.98200005
0.18767112 -0.22824334 0.98100007
0.19245091 -0.22870867 0.98300004
0.20604149 -0.22798562 0.98314297
0.21270816 -0.22858803 0.98400003
0.23791693 -0.22788897 0.98200005
0.25873131 -0.22824334 0.98100007
0.26048586 -0.22824334 0.98100007
-0.33336365 -0.25332224 0.99474996
-0.32497802 -0.2528117 0.99450004
-0.31738696 -0.25261995 0.99462509
-0.24193375 -0.25011462 0.99800003
-0.23479386 -0.25101039 0.99800009
-0.22494838 -0.25211293 0.99566674
-0.21529034 -0.25191677 0.99450004
-0.2054656 -0.25253928 0.99663639
-0.19507951 -0.25223413 0.99575013
-0.18594085 -0.25207016 0.99687505
-0.17430449 -0.25230753 0.99636364
-0.16566089 -0.25229412 0.99687511
-0.15551281 -0.25247043 0.99636364
-0.14510478 -0.2520448 0.99500006
-0.13480264 -0.25175488 0.99418181
-0.12534462 -0.25166294 0.99349993
-0.1154828 -0.2514728 0.99274993
-0.1049078 -0.25166348 0.99349999
-0.095134683 -0.25166348 0.99350005
-0.085361585 -0.25166348 0.99349999
-0.074717686 -0.25172701 0.99374998
-0.065002635 -0.251968 0.99470007
-0.055252053 -0.25210792 0.99524999
-0.044914991 -0.25184843 0.99390918
-0.035198215 -0.25154787 0.99336368
-0.024969306 -0.25191769 0.99450004
-0.015199291 -0.25212049 0.99529999
-0.0054160701 -0.25242341 0.99650002
0.0052776998 -0.25242341 0.99650002
0.015040534 -0.25173974 0.99379998
0.024831213 -0.25191769 0.9945001
0.034981813 -0.25160691 0.99366665
0.043998543 -0.25144455 0.99414301
0.055265017 -0.25190622 0.99800009
0.065082394 -0.25190622 0.99800009
0.072222307 -0.25190622 0.99800003
0.08650212 -0.25011462 0.99800003
0.094534516 -0.25011465 0.99800009
0.10524439 -0.25011465 0.99800009
0.1123843 -0.25011462 0.99800003
0.12934159 -0.25011462 0.99800003
0.13380402 -0.25101042 0.99800003
0.14808385 -0.25011462 0.99800003
0.15165381 -0.25011462 0.99800003
0.18467589 -0.25011465 0.99800009
0.19449328 -0.25011465 0.99800009
0.20252568 -0.25011462 0.99800003
0.24268769 -0.25190622 0.99800003
0.25339755 -0.25011462 0.99800003
0.26557925 -0.25210869 0.99350005
-0.24104126 -0.24832302 0.99800003
-0.23414482 -0.24612424 0.99523079
-0.22630942 -0.24686921 0.99274993
-0.21434943 -0.24780148 0.99199998
-0.20565967 -0.24794312 0.99200004
-0.19523597 -0.24861094 0.99200004
-0.18429479 -0.24801731 0.99200004
-0.17483215 -0.24861093 0.99200004
-0.16507378 -0.24861094 0.99200004
-0.15531543 -0.24861093 0.99200004
-0.14466995 -0.24861094 0.99200004
-0.1349116 -0.24861094 0.99200004
-0.12604037 -0.24861093 0.99200004
-0.11539488 -0.24861093 0.99200004
-0.063941739 -0.24861093 0.99200004
-0.054436851 -0.24835654 0.9920001
-0.045977496 -0.24794313 0.99200004
-0.035553798 -0.24861094 0.99200004
-0.024908323 -0.24861094 0.99200004
-0.015149966 -0.24861093 0.99200004
-0.0047262697 -0.24816574 0.99200004
0.0046202065 -0.24835654 0.9920001
0.01501222 -0.24861093 0.99200004
0.021222081 -0.24861093 0.99200004
0.046061531 -0.24861093 0.99200004
0.054045644 -0.24861093 0.99200004
0.065578245 -0.24861093 0.99200004
0.075486697 -0.24851854 0.99400014
0.084269479 -0.24746327 0.99275005
0.095344983 -0.24628745 0.99300003
0.10476985 -0.2463129 0.99349993
0.11545745 -0.24589661 0.9943077
0.12476387 -0.24589856 0.99499995
0.13526355 -0.24600324 0.99322736
0.14503276 -0.2464864 0.99299997
0.15519764 -0.24571973 0.99424994
0.16524142 -0.24523872 0.99420005
0.17475595 -0.24572042 0.99424988
0.18470035 -0.24538074 0.99333328
0.19496197 -0.24619806 0.99336356
0.20482326 -0.24656351 0.99418175
0.21506312 -0.24582045 0.99445456
0.22553387 -0.24464832 0.99414301
0.23456243 -0.24531527 0.99466652
0.24452601 -0.2451001 0.99459994
0.25491098 -0.24389429 0.99453855
0.26182869 -0.24638575 0.99500006
-0.32688874 -0.26243255 1.0040001
-0.25402144 -0.26140895 1.0070001
-0.24452701 -0.26181421 1.0065715
-0.23607381 -0.26175195 1.0060002
-0.22464739 -0.26075995 1.0045002
-0.21516791 -0.26125321 1.0064
-0.20539242 -0.26140895 1.0070001
-0.19638705 -0.26140895 1.0070001
-0.17477416 -0.26140895 1.0070001
-0.16576879 -0.26140895 1.0070001
-0.15136018 -0.26140895 1.0070001
-0.14505643 -0.26140895 1.0070001
-0.13515052 -0.26140895 1.0070001
-0.12467974 -0.26186627 1.0056667
-0.1155606 -0.26180586 1.0053636
-0.10813439 -0.26140895 1.0070001
-0.082018808 -0.26140898 1.0070002
-0.074814513 -0.26140895 1.0070001
-0.069411285 -0.26140895 1.0070001
-0.051400542 -0.26140895 1.0070001
-0.045096785 -0.26140895 1.0070001
-0.035190869 -0.26140895 1.0070001
-0.012677437 -0.26140895 1.0070001
-0.0099758245 -0.26140895 1.0070001
0.19804829 -0.26140895 1.0070001
-0.33253622 -0.25877324 1.001
-0.32541469 -0.25885308 1.001
-0.319049 -0.2586534 1.0010002
-0.26032519 -0.25779343 1.0070001
-0.25390714 -0.25715494 1.0039999
-0.24464849 -0.2559064 1.0025789
-0.2349939 -0.25668585 1.0026666
-0.22475919 -0.25779906 1.0031819
-0.21479535 -0.25742579 1.0023638
-0.20490929 -0.25765944 1.0026366
-0.19517916 -0.25756544 1.0029093
-0.18484817 -0.25738806 1.0040001
-0.17559202 -0.25761151 1.0037273
-0.16494863 -0.25743145 1.0035715
-0.15474093 -0.25772932 1.0029093
-0.14487684 -0.25742576 1.0023637
-0.13464521 -0.25773463 1.0032501
-0.1246503 -0.25746474 1.0022
-0.11470696 -0.25728485 1.0015001
-0.10468166 -0.25815016 1.0045457
-0.094887376 -0.25798631 1.0045455
-0.085238352 -0.25754261 1.0024999
-0.075376697 -0.25754261 1.0025002
-0.064681217 -0.25780043 1.0035001
-0.054774363 -0.25761995 1.0028
-0.044895258 -0.25754261 1.0025002
-0.03503361 -0.25754261 1.0025001
-0.025225557 -0.25812086 1.0047501
-0.015341033 -0.25800505 1.0043001
-0.0054543572 -0.25786263 1.0037501
0.0053245053 -0.25818443 1.005
0.015216521 -0.25831333 1.0055002
0.025100185 -0.25805578 1.0051999
0.03514735 -0.25796309 1.005091
0.045271277 -0.25725341 1.0040001
0.055024896 -0.25686845 1.0038127
0.06496419 -0.2561388 1.0037272
0.075539604 -0.25526568 1.0031431
0.084873855 -0.25529173 1.0038126
0.095102854 -0.25522667 1.0039999
0.10489492 -0.25502327 1.0032003
0.11515862 -0.25453115 1.0032859
0.12510175 -0.25408438 1.0030456
0.13493465 -0.2555038 1.0035715
0.14471523 -0.25461981 1.0025002
0.1550599 -0.25361267 1.0027144
0.16497104 -0.25317007 1.0029999
0.17530479 -0.25282657 1.0020589
0.18534438 -0.25508344 1.0034376
0.19515696 -0.25480649 1.0027648
0.20617808 -0.25442016 1.0033573
0.21503639 -0.25444335 1.0041363
0.22550426 -0.25487393 1.0035861
0.23524116 -0.25500426 1.002846
0.2452141 -0.25407487 1.0023638
0.25498325 -0.25450993 1.0026001
0.2634874 -0.25409791 1.0031002
0.27189234 -0.25779343 1.0070001
0.16464208 -0.24906948 1.001
0.21835238 -0.24906948 1.001
0.22103789 -0.24906948 1.001
0.24789307 -0.2490695 1.0010002
0.25565121 -0.24876998 1.001
0.26102224 -0.2478715 1.0010002
-0.32721621 -0.27184126 1.0190001
-0.28347534 -0.27062172 1.0190001
-0.27431008 -0.27202702 1.017125
-0.26441687 -0.27343318 1.0172
-0.25528443 -0.27275884 1.0156
-0.24534771 -0.27282336 1.0158335
-0.23544568 -0.27250797 1.0162308
-0.22528814 -0.27223623 1.0173635
-0.21560369 -0.27225286 1.0178
-0.20510621 -0.27184126 1.0190001
-0.19452322 -0.27229857 1.0176666
-0.1852567 -0.27223623 1.0173635
-0.17612146 -0.27147919 1.0165
-0.165241 -0.27223623 1.0173637
-0.15519202 -0.2724753 1.0176364
-0.14532381 -0.27169833 1.01675
-0.13517092 -0.2724753 1.0176364
-0.12520956 -0.27223623 1.0173637
-0.11460649 -0.27117431 1.0165
-0.10486664 -0.27184126 1.0190001
-0.094004132 -0.27225286 1.0178001
-0.084693871 -0.27235577 1.0175
-0.075172223 -0.27263227 1.0170715
-0.065249413 -0.27161258 1.0170001
-0.05469672 -0.2715745 1.0180001
-0.044722911 -0.27184126 1.0190001
-0.034698959 -0.27184129 1.0190001
-0.023853937 -0.27190658 1.0172858
-0.015357153 -0.27217284 1.0175
-0.0046270913 -0.27184126 1.0190001
0.0053968644 -0.27184129 1.0190001
0.016028333 -0.27184126 1.0190001
0.024533506 -0.27184126 1.0190001
0.034557462 -0.27184129 1.0190001
0.044581417 -0.27184126 1.0190001
0.055516642 -0.27062172 1.0190001
0.064629331 -0.27001196 1.0190001
0.075200044 -0.2714754 1.0190001
0.081943437 -0.27184126 1.0190001
0.095612459 -0.27001196 1.0190001
0.10472516 -0.27001196 1.0190001
0.11110403 -0.27001196 1.0190001
0.16760269 -0.27184126 1.0190001
0.17489283 -0.27184129 1.0190001
0.18491679 -0.27184126 1.0190001
0.19220695 -0.27184126 1.0190001
0.20678723 -0.27001196 1.0190001
0.21498868 -0.2712315 1.0190001
0.22501259 -0.27184126 1.0190001
0.23521881 -0.2707437 1.0190001
0.24506052 -0.27001196 1.0190001
0.25326192 -0.27001196 1.0190001
0.26693097 -0.2712315 1.0190001
0.27057603 -0.27001196 1.0190001
-0.32663712 -0.26697937 1.0172001
-0.28082356 -0.26830506 1.016
-0.27466863 -0.26613018 1.0141053
-0.26489481 -0.26478654 1.0122225
-0.25473434 -0.26572785 1.0108825
-0.24515334 -0.26654327 1.0112858
-0.23435052 -0.26646975 1.0115002
-0.2248812 -0.2665734 1.0124708
-0.21522528 -0.26664096 1.0135626
-0.20517582 -0.26708782 1.0148335
-0.19442046 -0.26603982 1.0124707
-0.18503621 -0.26550442 1.0116366
-0.17518289 -0.26639456 1.0126251
-0.16504502 -0.26650643 1.0130001
-0.15570217 -0.26563159 1.0124
-0.14503793 -0.26665011 1.0131668
-0.13496882 -0.2664482 1.0124002
-0.12529151 -0.26699975 1.0118464
-0.11472861 -0.26712179 1.0124546
-0.10482445 -0.26594591 1.0130001
-0.094943978 -0.26586586 1.0131431
-0.085343704 -0.26577288 1.0122503
-0.075185992 -0.26634222 1.0120002
-0.065089419 -0.2657823 1.0128697
-0.055247206 -0.26601058 1.0131501
-0.045090351 -0.26645362 1.0128237
-0.03507226 -0.2668193 1.0133749
-0.025218802 -0.2653735 1.0122176
-0.014953025 -0.26608786 1.0130002
-0.0045998464 -0.26569834 1.0130001
0.005368629 -0.26582989 1.0135002
0.015341371 -0.26589581 1.0137501
0.025318827 -0.26559085 1.0139234
0.035322811 -0.2661688 1.0148002
0.045229834 -0.26573122 1.0131253
0.054924689 -0.26556933 1.0136667
0.065154687 -0.26387984 1.0130002
0.075136758 -0.26485291 1.0132401
0.085094482 -0.2648164 1.0131004
0.095092513 -0.26399747 1.0134503
0.10509217 -0.26407585 1.0137501
0.1150126 -0.26395828 1.0133002
0.12487581 -0.26403463 1.0140437
0.1351068 -0.26427376 1.0145001
