# .PCD v0.7 - Point Cloud Data file format
VERSION 0.7
FIELDS x y z
SIZE 4 4 4
TYPE F F F
COUNT 1 1 1
WIDTH 1037
HEIGHT 1
VIEWPOINT 0 0 0 1 0 0 0
POINTS 1037
DATA ascii
-0.23941991 0.71051443 -1.9250001
0.094027244 0.61676347 -1.6710001
0.087628357 0.61381066 -1.6630001
0.090602718 0.61381066 -1.6630001
-0.071934104 0.60495228 -1.6390001
-0.06753695 0.60495228 -1.6390001
0.05265215 0.60495228 -1.6390001
0.058515031 0.60495228 -1.6390001
0.062912188 0.60495228 -1.6390001
0.06730935 0.60495228 -1.6390001
0.071706511 0.60495228 -1.6390001
-0.062831596 0.60199946 -1.631
-0.058455892 0.60199946 -1.631
0.027599525 0.60199946 -1.631
0.031975225 0.60199946 -1.631
0.010003868 0.59646302 -1.6160001
0.024455391 0.59646302 -1.6160001
0.0042023528 0.59351027 -1.608
0.0070783487 0.59351027 -1.608
0.0092956135 0.42895395 -1.1650001
0.012421113 0.42895395 -1.1650001
-0.13359524 0.069022112 -0.82500005
-0.1314791 0.068687454 -0.82100004
-0.065306343 -0.034765702 -0.68200004
-0.081709951 -0.038645256 -0.67642868
-0.077462852 -0.038001616 -0.67753851
-0.073442735 -0.03649132 -0.67828578
-0.069371596 -0.035884481 -0.68000001
-0.072012581 -0.033562429 -0.6762501
-0.067571737 -0.032716326 -0.67755556
-0.064363092 -0.031543542 -0.67850006
-0.066847667 -0.029302265 -0.67600006
-0.064827561 -0.02964945 -0.67700005
-0.10025663 -0.043841545 -0.671
-0.097102903 -0.042916734 -0.67160004
-0.09277723 -0.042007547 -0.6724667
-0.088592872 -0.041073911 -0.67357147
-0.091255724 -0.039023254 -0.671
-0.087361947 -0.038067613 -0.6718334
-0.082979918 -0.03651429 -0.67283332
-0.077839121 -0.035585441 -0.67433333
-0.081454746 -0.033803441 -0.671
-0.077246204 -0.032815054 -0.67181242
-0.07280495 -0.031419944 -0.67400008
-0.075454146 -0.028985154 -0.671
-0.072032824 -0.027740197 -0.67193335
-0.067820475 -0.027186774 -0.67366672
-0.066695325 -0.023895495 -0.67142856
-0.11068238 -0.049119081 -0.66633338
-0.10749307 -0.047808997 -0.66750008
-0.10434453 -0.046513762 -0.66900003
-0.10606103 -0.044710457 -0.66600001
-0.10244941 -0.043095548 -0.66742867
-0.097490005 -0.040677845 -0.66850007
-0.10070074 -0.039928071 -0.66600001
-0.097219512 -0.038226191 -0.66663629
-0.092489205 -0.036935885 -0.6680668
-0.087673426 -0.035512891 -0.66840005
-0.087006003 -0.03277396 -0.66638464
-0.082814716 -0.031935841 -0.66807699
-0.078478634 -0.030823557 -0.66950005
-0.081814706 -0.028252188 -0.66633332
-0.077595674 -0.027573917 -0.66746157
-0.07446824 -0.026109867 -0.6693334
-0.075686008 -0.024385311 -0.66600001
-0.072418094 -0.023425296 -0.66700006
-0.068244003 -0.021931604 -0.66736364
-0.067347765 -0.019602925 -0.66600001
-0.064965412 -0.018407328 -0.66600001
-0.12113504 -0.053211004 -0.66266674
-0.11771537 -0.051492479 -0.66287506
-0.1158829 -0.048799451 -0.66200006
-0.11267325 -0.047475252 -0.66285723
-0.10950327 -0.046165526 -0.66400003
-0.11104814 -0.043550611 -0.66200006
-0.10774529 -0.042680312 -0.66293341
-0.10390835 -0.04097959 -0.66366673
-0.10660806 -0.039688263 -0.66200006
-0.10200574 -0.038790386 -0.66244453
-0.098764867 -0.037071135 -0.66300005
-0.093866527 -0.03504014 -0.66400003
-0.095862255 -0.033994421 -0.66220009
-0.09238296 -0.032119069 -0.6627335
-0.088503033 -0.030946746 -0.66385722
-0.09121576 -0.028992519 -0.66200006
-0.087422185 -0.027723167 -0.66241682
-0.083378889 -0.026566451 -0.66345465
-0.078427717 -0.025504088 -0.66400003
-0.081693769 -0.023570221 -0.6622858
-0.077424243 -0.022594005 -0.6625334
-0.072779246 -0.020955727 -0.66340011
-0.071722142 -0.018308369 -0.66240013
-0.067773722 -0.017318416 -0.66300005
-0.064721547 -0.016552018 -0.66350007
-0.067281574 -0.014222207 -0.66200012
-0.064624004 -0.014148445 -0.66250002
-0.14134903 -0.059144117 -0.65700001
-0.13729544 -0.058954995 -0.65744448
-0.13269402 -0.057721328 -0.65818185
-0.12851794 -0.056465771 -0.65900004
-0.12703472 -0.053443648 -0.65785718
-0.12300653 -0.051830705 -0.65878576
-0.11927088 -0.050231785 -0.66000003
-0.12094419 -0.048455648 -0.65733337
-0.11751767 -0.047227547 -0.65821433
-0.11437465 -0.045423552 -0.65900004
-0.11579105 -0.04410626 -0.65700001
-0.11264252 -0.042457439 -0.65815383
-0.10923709 -0.040753182 -0.66000003
-0.11062866 -0.038843296 -0.65775007
-0.10696573 -0.037726473 -0.65790915
-0.10306393 -0.036886506 -0.65911114
-0.099793524 -0.036013879 -0.66000003
-0.10090669 -0.034277596 -0.65700001
-0.097852431 -0.032706626 -0.65860003
-0.094409496 -0.030066956 -0.6595
-0.09625499 -0.029575031 -0.65733337
-0.091996729 -0.027260456 -0.65841663
-0.088250399 -0.025637053 -0.65974998
-0.086520828 -0.022691201 -0.6578182
-0.083210617 -0.021650249 -0.65955555
-0.078545496 -0.020611148 -0.66000003
-0.085238948 -0.019338021 -0.65700001
-0.081762917 -0.018170176 -0.65740001
-0.07733953 -0.017710453 -0.65873677
-0.073285595 -0.016542017 -0.65971434
-0.077013388 -0.014325402 -0.65700001
-0.072364062 -0.013901099 -0.65845454
-0.067849256 -0.01185641 -0.65827274
-0.064380139 -0.011724956 -0.66000003
-0.064087503 -0.0099025015 -0.65700001
-0.15619111 -0.063902579 -0.65200001
-0.1522803 -0.062962614 -0.65252948
-0.14780532 -0.061919075 -0.65437502
-0.14472614 -0.060433887 -0.65500003
-0.1474269 -0.058516491 -0.65255558
-0.14260525 -0.057349768 -0.65333343
-0.13756993 -0.056267183 -0.65440005
-0.13301113 -0.055730492 -0.65500009
-0.14056486 -0.054304775 -0.65200001
-0.13730527 -0.053506367 -0.65263635
-0.13266194 -0.05261061 -0.65389466
-0.12868266 -0.051798012 -0.65483338
-0.13129303 -0.048975829 -0.65228581
-0.12729628 -0.048083831 -0.65333343
-0.12287427 -0.047019262 -0.6544376
-0.11889195 -0.04512487 -0.65466666
-0.12540507 -0.04494106 -0.65200001
-0.12222135 -0.043340061 -0.652125
-0.11764719 -0.042025093 -0.65357894
-0.11387655 -0.040836394 -0.65500009
-0.1170615 -0.03859498 -0.65244448
-0.11268516 -0.037226904 -0.6535334
-0.10861038 -0.036200475 -0.65480006
-0.11024528 -0.034406886 -0.65200001
-0.10701793 -0.03325545 -0.6523636
-0.1027379 -0.032510471 -0.65400004
-0.10202134 -0.029095031 -0.65244442
-0.097640887 -0.027383672 -0.65349996
-0.093474761 -0.025916398 -0.65433335
-0.095085487 -0.023872707 -0.65200001
-0.091994926 -0.022634469 -0.65283334
-0.088663451 -0.021740286 -0.65433341
-0.087254941 -0.018046333 -0.6529091
-0.083549052 -0.016641507 -0.6540001
-0.081840165 -0.013677163 -0.6529091
-0.07761433 -0.012201034 -0.65369242
-0.072897509 -0.011547322 -0.65471435
-0.077316314 -0.009390099 -0.652125
-0.072161645 -0.0081215585 -0.65280002
-0.067603506 -0.0076699611 -0.65381813
-0.064379126 -0.0069233454 -0.65400004
-0.067331411 -0.0037407267 -0.65200001
-0.064765908 -0.0039748196 -0.65200001
-0.16635802 -0.068388455 -0.64500004
-0.16247988 -0.067265727 -0.64689475
-0.1594277 -0.067328416 -0.64966673
-0.16141513 -0.063855708 -0.64600003
-0.1580094 -0.062309764 -0.64788234
-0.15350313 -0.061139438 -0.65000004
-0.15652554 -0.058980327 -0.64622229
-0.15247938 -0.058056775 -0.64812505
-0.14804323 -0.055922884 -0.64854556
-0.143912 -0.055596784 -0.65000004
-0.15116872 -0.054879643 -0.64500004
-0.14684406 -0.05316136 -0.64600003
-0.14249939 -0.052193362 -0.64755571
-0.13798776 -0.050915066 -0.64928573
-0.14107457 -0.048800685 -0.64500004
-0.13716994 -0.048324157 -0.64600003
-0.13296364 -0.047066193 -0.6479333
-0.12908936 -0.045970079 -0.65000004
-0.13159034 -0.043836303 -0.64557147
-0.12759167 -0.042814236 -0.64761913
-0.12294257 -0.040961731 -0.64963645
-0.12598246 -0.038703848 -0.64557147
-0.12229335 -0.037441034 -0.64749998
-0.11800002 -0.036165636 -0.6491819
-0.1170195 -0.032881401 -0.64664292
-0.11273755 -0.032380119 -0.64858824
-0.10855717 -0.031518169 -0.64975005
-0.11161813 -0.029035125 -0.64533341
-0.10726698 -0.027998183 -0.6481111
-0.10300715 -0.026768086 -0.64966667
-0.1060945 -0.024413943 -0.64566672
-0.10223507 -0.022804147 -0.64727277
-0.097672813 -0.022483991 -0.64921051
-0.093610428 -0.020961184 -0.64985722
-0.10056432 -0.019014249 -0.64600003
-0.097069062 -0.017617334 -0.64635724
-0.092269525 -0.017345781 -0.64861119
-0.088050961 -0.016098112 -0.65000004
-0.092207924 -0.013875544 -0.64585721
-0.087318197 -0.012982016 -0.64782357
-0.082893819 -0.011675624 -0.64900005
-0.082158916 -0.0085916715 -0.64700001
-0.077495724 -0.0066507086 -0.64875007
-0.073210381 -0.0055131977 -0.64933342
-0.076760367 -0.0039321454 -0.64500004
-0.072135665 -0.0027069733 -0.64700001
-0.067972697 -0.0016279281 -0.64922225
-0.068485729 0.0023208275 -0.64530003
-0.065801002 0.0059099849 -0.64500004
-0.18175898 -0.071800053 -0.64100003
-0.17705792 -0.07316687 -0.64162505
-0.17299604 -0.07212387 -0.64216673
-0.16993953 -0.07097999 -0.64400005
-0.17067651 -0.069115058 -0.64100003
-0.16786884 -0.067116648 -0.64282358
-0.16418038 -0.066355579 -0.64400005
-0.16705564 -0.063438609 -0.64177781
-0.16291946 -0.061681401 -0.6426667
-0.16109337 -0.058755338 -0.64180005
-0.15805149 -0.056975253 -0.64250004
-0.15426952 -0.05590722 -0.64350003
-0.15577248 -0.054155733 -0.64100003
-0.15243158 -0.05290693 -0.64212507
-0.14796197 -0.051024199 -0.64310002
-0.14459929 -0.05017015 -0.64400005
-0.15080446 -0.049936436 -0.64100003
-0.14705312 -0.047831751 -0.64142859
-0.14273392 -0.046934251 -0.64264292
-0.13794909 -0.045970436 -0.64387506
-0.1416987 -0.043052632 -0.64130002
-0.13753885 -0.042659629 -0.64211112
-0.13329095 -0.041927241 -0.64316678
-0.1370469 -0.039292306 -0.64100003
-0.13229224 -0.038140509 -0.64182353
-0.12785372 -0.037330858 -0.64320004
-0.12373694 -0.035104439 -0.64333338
-0.12749305 -0.034593549 -0.64100003
-0.1216624 -0.032559015 -0.64192861
-0.11849423 -0.031191114 -0.64360011
-0.12099642 -0.029223531 -0.64100003
-0.11737237 -0.028026139 -0.64166671
-0.11275178 -0.02708658 -0.64276934
-0.10938306 -0.025871893 -0.64350003
-0.11204457 -0.024243494 -0.64116669
-0.10763814 -0.022414576 -0.64194739
-0.10400098 -0.020345408 -0.64225
-0.10221793 -0.017731765 -0.64154547
-0.098510265 -0.01591032 -0.64240003
-0.096687339 -0.013230744 -0.64200008
-0.09267363 -0.011574549 -0.64263648
-0.088067792 -0.01085142 -0.64333338
-0.091852494 -0.0088285701 -0.64127266
-0.087098561 -0.0081910286 -0.64164287
-0.082867138 -0.0061277719 -0.64241666
-0.081730038 -0.0036200811 -0.64100003
-0.077579185 -0.0020853584 -0.64223534
-0.073416114 -0.00074641174 -0.64350003
-0.076284334 0.00069510774 -0.64100003
-0.072431944 0.0024263326 -0.64243752
-0.068578556 0.0030105661 -0.64400005
-0.07202287 0.0067192456 -0.6415385
-0.067678131 0.0073440387 -0.64252943
-0.06492082 0.0093400329 -0.64200002
-0.065966159 0.01105156 -0.64100003
-0.18062477 -0.070208475 -0.63700002
-0.17695963 -0.070719436 -0.63816667
-0.17376311 -0.070428908 -0.63900006
-0.18197459 -0.067789011 -0.63575006
-0.17733397 -0.067505524 -0.63643748
-0.17282918 -0.067230225 -0.6376667
-0.16976301 -0.065840401 -0.63900006
-0.1760826 -0.063148357 -0.63500005
-0.17252575 -0.062731817 -0.63655001
-0.168092 -0.061987069 -0.6383
-0.17110583 -0.059205286 -0.63550007
-0.16730249 -0.057785362 -0.63605267
-0.16289483 -0.056881122 -0.63764715
-0.15947703 -0.055516262 -0.63900006
-0.16529313 -0.054028794 -0.63500005
-0.16195685 -0.05346147 -0.63577789
-0.15783708 -0.052294772 -0.63699996
-0.15420191 -0.051203266 -0.6376667
-0.15624216 -0.048828743 -0.63514292
-0.15230194 -0.048020426 -0.63711768
-0.14867118 -0.045837678 -0.63800001
-0.15098621 -0.044552818 -0.63533342
-0.14707167 -0.042377409 -0.63623536
-0.14327383 -0.041692656 -0.63810003
-0.14205615 -0.03807833 -0.63640004
-0.13768342 -0.037177514 -0.63793343
-0.13388249 -0.0363787 -0.63866675
-0.14030702 -0.034649715 -0.63500005
-0.13720094 -0.034726109 -0.63640004
-0.13176599 -0.033598084 -0.63663644
-0.12759611 -0.032175284 -0.63674998
-0.12399516 -0.031234708 -0.63800001
-0.12587586 -0.028106429 -0.63525003
-0.12248623 -0.027319962 -0.63683331
-0.11795532 -0.025887875 -0.63820004
-0.12088604 -0.023956915 -0.63560003
-0.11739329 -0.022810919 -0.63662505
-0.11288763 -0.02222326 -0.63821429
-0.11576003 -0.019460851 -0.63533342
-0.11224227 -0.018294832 -0.63606256
-0.10787482 -0.017314086 -0.63768184
-0.1032511 -0.016071539 -0.63850003
-0.10705034 -0.013464171 -0.63580006
-0.10224596 -0.012669935 -0.63668758
-0.098621488 -0.01165267 -0.63800001
-0.10093497 -0.0091909301 -0.63500011
-0.096870221 -0.0077886549 -0.63631588
-0.092684686 -0.0062717823 -0.63750005
-0.087903768 -0.0054728659 -0.639
-0.09184543 -0.0028374754 -0.63545471
-0.087460898 -0.0022969649 -0.63705564
-0.082844727 -0.0015996551 -0.63792866
-0.079474978 -0.00045418763 -0.63900006
-0.086500332 0.0016007748 -0.63520002
-0.082413651 0.0023724227 -0.63615793
-0.07770092 0.0025248409 -0.63820004
-0.074903429 0.002987192 -0.63900006
-0.081337973 0.0063948343 -0.63570011
-0.077394873 0.0074266046 -0.63673693
-0.073435545 0.0085143652 -0.63783336
-0.068046108 0.0098699518 -0.63900006
-0.076706007 0.010948113 -0.63500005
-0.072025314 0.012178805 -0.63580006
-0.06799107 0.012824708 -0.63684618
-0.067362398 0.015798988 -0.63525003
-0.18260896 -0.065704599 -0.63400006
-0.17939612 -0.065704599 -0.634
-0.18213764 -0.062427584 -0.63264292
-0.17764923 -0.062239468 -0.63299996
-0.18230917 -0.059352282 -0.63100004
-0.17675984 -0.058755144 -0.63066673
-0.17290941 -0.057441887 -0.63240004
-0.1695686 -0.056220014 -0.634
-0.17112795 -0.05435735 -0.63000005
-0.16724621 -0.052929752 -0.63094449
-0.16288052 -0.051232368 -0.63245457
-0.16188449 -0.048477486 -0.63057154
-0.15809716 -0.047184233 -0.63206255
-0.15426037 -0.045976657 -0.634
-0.15664017 -0.0437067 -0.63080007
-0.15259355 -0.042359941 -0.63180006
-0.14910065 -0.040664196 -0.63280004
-0.15092534 -0.038544357 -0.63033342
-0.14715391 -0.037539847 -0.63170588
-0.14352551 -0.036406927 -0.63250005
-0.14551452 -0.03440417 -0.63050008
-0.14195096 -0.034216173 -0.63120002
-0.13736613 -0.032498844 -0.63145459
-0.13330458 -0.031788923 -0.63250005
-0.1293136 -0.03004255 -0.634
-0.13603745 -0.029900394 -0.63100004
-0.13148129 -0.028759226 -0.63080007
-0.12777835 -0.026915748 -0.632375
-0.12421085 -0.025489947 -0.634
-0.126532 -0.023463083 -0.63050008
-0.12306499 -0.02234943 -0.63223523
-0.11891934 -0.020904319 -0.63300002
-0.12092534 -0.018940818 -0.63066673
-0.11725774 -0.017662808 -0.63176471
-0.11347536 -0.015706375 -0.63285714
-0.11553966 -0.014019429 -0.63000005
-0.11201424 -0.012909816 -0.63100004
-0.1078278 -0.01133611 -0.63169998
-0.10436684 -0.010693989 -0.634
-0.1067296 -0.008794345 -0.63037503
-0.1025025 -0.0076795681 -0.63168752
-0.098335348 -0.0061365436 -0.63350004
-0.1008914 -0.0049716695 -0.63000005
-0.097359829 -0.0029820628 -0.63117653
-0.093303956 -0.0013342743 -0.63288891
-0.095257454 0.00068317924 -0.63000005
-0.092414923 0.0023016527 -0.63092864
-0.088219948 0.0026529985 -0.6323334
-0.084522821 0.0029638181 -0.634
-0.09117391 0.0055868044 -0.63033342
-0.087319225 0.0067246798 -0.6310001
-0.083057642 0.0081479596 -0.63271427
-0.079293907 0.0097772758 -0.63300002
-0.081424668 0.011624807 -0.63050008
-0.077480778 0.01269766 -0.6320588
-0.073350549 0.01403816 -0.63300002
-0.077228822 0.015385786 -0.63000005
-0.072181962 0.01620785 -0.63120002
-0.068215601 0.017695403 -0.63174999
-0.18060632 -0.061422508 -0.62900001
-0.18045598 -0.057897486 -0.62750006
-0.17733157 -0.057217568 -0.62790906
-0.17470312 -0.05568796 -0.62800002
-0.17228892 -0.053191245 -0.62779999
-0.16861401 -0.051017713 -0.62833333
-0.16709468 -0.048593372 -0.62737513
-0.16293174 -0.046663899 -0.62792313
-0.16089688 -0.043935288 -0.62760007
-0.15812896 -0.042060453 -0.62820005
-0.15635733 -0.039416295 -0.6274001
-0.15262933 -0.037580051 -0.62806672
-0.14898731 -0.035705604 -0.62849998
-0.15087503 -0.034213185 -0.62700003
-0.14720765 -0.033536982 -0.62750006
-0.14240482 -0.031997997 -0.6276924
-0.13883339 -0.030902006 -0.62833333
-0.14134294 -0.02971085 -0.62700003
-0.13707058 -0.028156547 -0.62746662
-0.13286833 -0.026980881 -0.62792313
-0.12998128 -0.025288921 -0.62900001
-0.1306894 -0.023520134 -0.62700003
-0.12806153 -0.022129975 -0.62807697
-0.12597322 -0.019307001 -0.62725008
-0.12243178 -0.017352294 -0.6277858
-0.11888041 -0.015568401 -0.6286
-0.12059659 -0.01395267 -0.62700003
-0.11706273 -0.013071152 -0.62790006
-0.11351714 -0.010971688 -0.62816668
-0.11174928 -0.0083345808 -0.62770003
-0.10805132 -0.0071228882 -0.6285001
-0.10410626 -0.006092953 -0.62900001
-0.10705177 -0.0046297819 -0.62742865
-0.10222776 -0.0032261165 -0.62760001
-0.098750979 -0.0011990899 -0.62833333
-0.09690436 0.0022901394 -0.62764293
-0.093930855 0.0029388859 -0.62866664
-0.096299082 0.0055574579 -0.62700003
-0.092765391 0.0071783732 -0.62794119
-0.088098511 0.0093313772 -0.62850004
-0.08498124 0.0097154919 -0.62900001
-0.087012805 0.011461021 -0.62742865
-0.08313822 0.012824398 -0.62815398
-0.079356238 0.01423219 -0.62900001
-0.080599144 0.015687717 -0.62700003
-0.077313773 0.016651802 -0.62736362
-0.072722681 0.018364767 -0.62776929
-0.068668723 0.019878063 -0.62900001
-0.070132524 0.020940444 -0.62700003
-0.067687996 0.022206137 -0.62744451
-0.18135327 -0.055835258 -0.62460005
-0.17833994 -0.055421941 -0.625
-0.18223082 -0.052199826 -0.62192863
-0.17765433 -0.052416157 -0.62260002
-0.17367327 -0.051998552 -0.6243
-0.18527129 -0.04957287 -0.62200004
-0.17608789 -0.049493171 -0.62100005
-0.1723742 -0.048978955 -0.62218189
-0.16799834 -0.046731815 -0.62318748
-0.16492578 -0.04532399 -0.625
-0.16642249 -0.043106239 -0.62177783
-0.16288485 -0.042170383 -0.62323529
-0.15963873 -0.04077068 -0.62400001
-0.16170077 -0.038357746 -0.62120008
-0.15772069 -0.037271123 -0.62260002
-0.15387212 -0.035652298 -0.62460005
-0.15634559 -0.033940352 -0.6220001
-0.15247765 -0.032608375 -0.62242872
-0.14812182 -0.031625401 -0.62376928
-0.14480454 -0.030738071 -0.625
-0.15054196 -0.029426534 -0.62100005
-0.14717188 -0.028162647 -0.62231255
-0.1425312 -0.027216068 -0.62372714
-0.1380977 -0.025893215 -0.62450004
-0.13362607 -0.025128102 -0.625
-0.14221504 -0.023458198 -0.62162507
-0.13754365 -0.022235174 -0.62250006
-0.13259891 -0.022053732 -0.62388235
-0.12915468 -0.020640125 -0.625
-0.13617542 -0.019403627 -0.62133336
-0.13248208 -0.018003184 -0.62173337
-0.1279024 -0.017605251 -0.62344444
-0.12370957 -0.015917774 -0.62460005
-0.12669261 -0.014169711 -0.62170005
-0.12227954 -0.01282509 -0.62292874
-0.11804481 -0.011190867 -0.62360007
-0.11677309 -0.008099488 -0.6220001
-0.11330435 -0.0071646469 -0.62390006
-0.11220542 -0.0037043821 -0.62161553
-0.10789809 -0.0019982271 -0.62311113
-0.1032006 -0.0011448141 -0.62437505
-0.1062777 0.0021608872 -0.62141675
-0.1023813 0.0022533911 -0.62294126
-0.099178083 0.0029184059 -0.62428582
-0.1055589 0.0051326719 -0.62100005
-0.10204115 0.0065111625 -0.62169236
-0.097692125 0.0075433371 -0.6229524
-0.093069665 0.0094200419 -0.62440008
-0.095824584 0.011458866 -0.62150002
-0.092093505 0.012068818 -0.62233335
-0.08801119 0.013168739 -0.62325007
-0.086204626 0.016295815 -0.62160009
-0.082476094 0.017444778 -0.62283337
-0.078048646 0.018913001 -0.62427282
-0.073821276 0.019751653 -0.625
-0.081123665 0.020740055 -0.62100005
-0.077047534 0.022221562 -0.62211764
-0.072520502 0.022498734 -0.62343752
-0.069126599 0.023478705 -0.62466669
-0.076125547 0.025199307 -0.62100005
-0.071882755 0.026093835 -0.62166673
-0.068040803 0.027420579 -0.62235302
-0.18548481 -0.046000104 -0.61900002
-0.1824031 -0.047659442 -0.61887497
-0.17778037 -0.047547981 -0.61870593
-0.17292731 -0.046613634 -0.61909091
-0.18255506 -0.043883946 -0.61658347
-0.17756864 -0.043601446 -0.61650014
-0.17240053 -0.042969532 -0.61694998
-0.16849689 -0.042103216 -0.61887503
-0.16671059 -0.037819628 -0.61726677
-0.16350029 -0.037146475 -0.6196
-0.16543896 -0.034746975 -0.61650002
-0.16191852 -0.034136415 -0.61818182
-0.15722325 -0.032386612 -0.61786669
-0.15359883 -0.030887833 -0.61899996
-0.15594035 -0.029189607 -0.61600006
-0.15227436 -0.02789668 -0.61727786
-0.1484576 -0.026211938 -0.61880004
-0.14696303 -0.023893937 -0.61725008
-0.14289747 -0.021524258 -0.6181429
-0.14074263 -0.018991843 -0.61700004
-0.13761307 -0.017432285 -0.61812514
-0.13344905 -0.016275344 -0.61900002
-0.13630454 -0.013961445 -0.61633343
-0.13208687 -0.013668 -0.61746675
-0.12790138 -0.011742407 -0.61793745
-0.12343423 -0.010823227 -0.6196667
-0.12596844 -0.009011846 -0.61625004
-0.1220447 -0.0082031284 -0.61771435
-0.11870742 -0.0066871913 -0.61862499
-0.11672137 -0.0034242801 -0.61746162
-0.11315143 -0.0016533235 -0.61918181
-0.11517562 0.00066799746 -0.61600006
-0.11176649 0.0021466704 -0.61746675
-0.10863975 0.0026473976 -0.61922216
-0.1111958 0.0054627135 -0.61633337
-0.10762468 0.0065143253 -0.61819994
-0.10319483 0.0085442336 -0.61863637
-0.099289946 0.009576479 -0.62
-0.10105617 0.010918991 -0.61725008
-0.098020807 0.012587697 -0.61853337
-0.093745433 0.014028552 -0.62
-0.096248269 0.01533255 -0.61650002
-0.091918863 0.016684594 -0.61766666
-0.088076897 0.018083422 -0.61913341
-0.084319741 0.019593641 -0.62
-0.087258615 0.021407997 -0.61690915
-0.082629651 0.022750719 -0.61815012
-0.078917399 0.023661777 -0.6196667
-0.080568247 0.025580216 -0.61675
-0.077546537 0.027289698 -0.61789471
-0.073111244 0.028103555 -0.61900002
-0.069349542 0.0296108 -0.62
-0.075512625 0.030525601 -0.61600006
-0.071300834 0.03124175 -0.61650008
-0.067278162 0.032561954 -0.6173889
-0.064547479 0.0344235 -0.61650002
-0.064495131 0.036054786 -0.61600006
-0.18238071 -0.041025847 -0.61383331
-0.17754197 -0.040701989 -0.61449999
-0.17344987 -0.040611189 -0.61480004
-0.18587966 -0.038951516 -0.61300004
-0.18090197 -0.038824428 -0.611
-0.17763835 -0.038393419 -0.61188889
-0.1725857 -0.037495434 -0.61316663
-0.16903925 -0.036973599 -0.61466664
-0.1707994 -0.034493346 -0.61200005
-0.1675633 -0.033735313 -0.61272728
-0.1626595 -0.031556513 -0.61285716
-0.15872799 -0.030748505 -0.61400008
-0.16059028 -0.028602853 -0.61133337
-0.1574001 -0.027402636 -0.61311114
-0.15369943 -0.026095603 -0.61475003
-0.15602146 -0.024330772 -0.61200005
-0.15246442 -0.022813438 -0.61300004
-0.14820133 -0.021528995 -0.61406666
-0.14468759 -0.020309884 -0.61500001
-0.15030338 -0.019080926 -0.611
-0.14710431 -0.018194675 -0.61238462
-0.14269078 -0.01721012 -0.61377782
-0.13918778 -0.015893716 -0.61500001
-0.14124396 -0.013894212 -0.61200005
-0.13800146 -0.012032971 -0.61347061
-0.1327121 -0.01085462 -0.61444449
-0.13614492 -0.0087881591 -0.61220008
-0.13225877 -0.0081365788 -0.61269236
-0.12798208 -0.0073070345 -0.61370593
-0.12350377 -0.0063202102 -0.61450005
-0.12656672 -0.0039752326 -0.61188895
-0.12216612 -0.0029368831 -0.61263639
-0.11816449 -0.0017088773 -0.61392307
-0.12079759 0.00066257542 -0.611
-0.11743549 0.0022166094 -0.61258829
-0.11409637 0.0028723259 -0.61442864
-0.11661601 0.0061560436 -0.61200005
-0.11259469 0.0072113886 -0.61331576
-0.10776273 0.0088740783 -0.61422223
-0.10712935 0.012015605 -0.61200005
-0.10284855 0.013023864 -0.61327279
-0.099007219 0.014619481 -0.61366671
-0.10549829 0.016018633 -0.611
-0.10165107 0.01703516 -0.6114167
-0.097402349 0.017677909 -0.61264712
-0.093604028 0.018703045 -0.61362499
-0.096755847 0.02095451 -0.61100006
-0.092437722 0.02245573 -0.61230445
-0.087749094 0.023814883 -0.61407149
-0.084189728 0.024955837 -0.61500001
-0.09056326 0.026256006 -0.611
-0.0870037 0.027036699 -0.61214286
-0.082744732 0.027869398 -0.61341178
-0.079294093 0.028956831 -0.61400002
-0.081114195 0.03101733 -0.61116672
-0.077155717 0.032408882 -0.6128096
-0.072753981 0.033206668 -0.61379999
-0.069065265 0.034616202 -0.61500001
-0.075507395 0.035791397 -0.61150002
-0.072475299 0.037353121 -0.61170596
-0.067502759 0.037547346 -0.61330003
-0.06428574 0.038142219 -0.61400002
-0.071074873 0.040149581 -0.611
-0.066715121 0.040802956 -0.61166668
-0.064146131 0.043559857 -0.61266673
-0.18253687 -0.037271459 -0.60864288
-0.17736048 -0.036160093 -0.60860008
-0.17396407 -0.0354563 -0.60966671
-0.17646071 -0.034211535 -0.60700005
-0.17207287 -0.032958951 -0.60861552
-0.16766359 -0.031564929 -0.60966671
-0.16369513 -0.030000357 -0.61000001
-0.16669068 -0.028881975 -0.60785717
-0.16272095 -0.026988924 -0.60888243
-0.15951289 -0.025985118 -0.61000001
-0.16107592 -0.023704465 -0.60766673
-0.15740637 -0.022416884 -0.60888892
-0.1535399 -0.020410273 -0.60975003
-0.15500259 -0.01898724 -0.60800004
-0.15217882 -0.017696088 -0.60860008
-0.14816216 -0.016162001 -0.60950011
-0.15040505 -0.014597288 -0.60700005
-0.14697647 -0.01371593 -0.60816669
-0.14279053 -0.01203498 -0.60900003
-0.13914719 -0.01028917 -0.61000001
-0.14080705 -0.0088877706 -0.60775006
-0.13779543 -0.0072795078 -0.60853332
-0.13332842 -0.0062739272 -0.61000007
-0.13586012 -0.0047941105 -0.60750008
-0.13221978 -0.0039821705 -0.60825002
-0.12813565 -0.0020054742 -0.60887504
-0.1241457 -0.00070734159 -0.61000001
-0.12612776 0.0015301992 -0.60720009
-0.12274667 0.0023872869 -0.60926312
-0.11950888 0.0028516231 -0.61000001
-0.12210076 0.0063240472 -0.60831255
-0.11804398 0.0074184164 -0.60909104
-0.11336714 0.0094104344 -0.60925001
-0.11187804 0.012122713 -0.60818756
-0.10854492 0.013795136 -0.60970008
-0.11023589 0.015913764 -0.60700005
-0.10707056 0.017459683 -0.60868752
-0.10298585 0.018589247 -0.60987508
-0.10223261 0.021398962 -0.60807699
-0.097913414 0.023052664 -0.60926324
-0.093869932 0.024752943 -0.61000001
-0.096264213 0.026849603 -0.60789996
-0.092455305 0.027685899 -0.60935295
-0.088142082 0.028859442 -0.61000001
-0.091311678 0.030104388 -0.60750008
-0.087303311 0.031446639 -0.60843754
-0.082779758 0.032841422 -0.60931581
-0.078777514 0.03424352 -0.61000001
-0.080919199 0.036333404 -0.60833335
-0.077876747 0.037779003 -0.60910529
-0.074231602 0.038988803 -0.61000001
-0.076240525 0.041198567 -0.60800004
-0.072451912 0.042079542 -0.60880011
-0.067761712 0.043004505 -0.60928577
-0.064957947 0.043916598 -0.61000001
-0.065724134 0.045335136 -0.60700005
-0.18128967 -0.035184905 -0.60500002
-0.17912552 -0.035184905 -0.60500002
-0.18174681 -0.032235265 -0.60126662
-0.17775303 -0.032312479 -0.60363156
-0.17354251 -0.03189569 -0.6044001
-0.18086454 -0.029508548 -0.60000002
-0.17690578 -0.028651789 -0.60083336
-0.17209744 -0.027712373 -0.60187507
-0.16801158 -0.026539875 -0.60443747
-0.17049092 -0.02376394 -0.60000002
-0.16692846 -0.022992924 -0.6018824
-0.1627589 -0.022310594 -0.60375011
-0.15910712 -0.021065732 -0.60500002
-0.16204397 -0.018232267 -0.60105002
-0.15750659 -0.017561981 -0.6034075
-0.15332113 -0.016064551 -0.60480005
-0.16047502 -0.014428951 -0.60000002
-0.15702611 -0.012889692 -0.60072225
-0.15259685 -0.012334802 -0.60280007
-0.14799765 -0.011422648 -0.6042667
-0.14395806 -0.010204831 -0.60500002
-0.15215485 -0.008830972 -0.6002
-0.14752577 -0.0076000979 -0.6019091
-0.14276157 -0.007256608 -0.60411769
-0.13951391 -0.0058556283 -0.60450006
-0.14631662 -0.0044676177 -0.60025001
-0.14215747 -0.0030183913 -0.60105002
-0.13763911 -0.0025061583 -0.60300004
-0.13282639 -0.0015157291 -0.60464287
-0.12935004 -0.00043002114 -0.60500002
-0.14008549 0.00065064686 -0.60000002
-0.13716277 0.0025357325 -0.60012501
-0.13261224 0.0027344532 -0.60175002
-0.12778448 0.003038008 -0.60375005
-0.13579296 0.0060362173 -0.60000002
-0.13218123 0.0069363276 -0.60025001
-0.12698351 0.007077171 -0.60175002
-0.12307698 0.0085531678 -0.60290003
-0.11798824 0.0093447901 -0.60500002
-0.12506163 0.010344674 -0.60000002
-0.12178969 0.010948817 -0.60033333
-0.11740089 0.012468456 -0.60251856
-0.11345718 0.013677117 -0.60450006
-0.11630241 0.016935978 -0.60033327
-0.11270533 0.017425068 -0.60280001
-0.10906079 0.018380038 -0.60450006
-0.11152309 0.020519406 -0.60057151
-0.10710343 0.021920782 -0.60247618
-0.10295799 0.023590751 -0.60400009
-0.10209065 0.02699328 -0.60166669
-0.098047644 0.028503578 -0.60352945
-0.093589358 0.029963983 -0.60466671
-0.096166767 0.031912815 -0.60050005
-0.092266463 0.032591164 -0.60310006
-0.088022761 0.033617914 -0.60450006
-0.084984943 0.034324862 -0.60500002
-0.091885597 0.03623125 -0.60059994
-0.087710992 0.037359532 -0.60144001
-0.082990304 0.037753377 -0.60361916
-0.079574563 0.039755311 -0.60500002
-0.08660771 0.04086291 -0.60000002
-0.08203157 0.042152915 -0.60089469
-0.078041211 0.043257777 -0.60338891
-0.073082112 0.04409967 -0.60500002
-0.081063181 0.047505111 -0.60000002
-0.077832624 0.047432363 -0.60071433
-0.072714448 0.047117539 -0.60195994
-0.067911118 0.04718481 -0.60347623
-0.081063181 0.050736453 -0.60000002
-0.077684864 0.051168606 -0.60069227
-0.072598927 0.051360473 -0.60100001
-0.068346657 0.050933938 -0.60142869
-0.18324146 -0.030534688 -0.59900004
-0.18210517 -0.027518131 -0.59726673
-0.1780685 -0.02630903 -0.59782356
-0.17368102 -0.025502533 -0.59866667
-0.18113099 -0.024277998 -0.59500003
-0.176952 -0.022893051 -0.59600013
-0.17268807 -0.022323137 -0.59731585
-0.16850553 -0.02120365 -0.59866667
-0.1712532 -0.018998101 -0.59550005
-0.16739249 -0.017640615 -0.59636003
-0.1638269 -0.016394464 -0.59744447
-0.16658705 -0.01430871 -0.59500003
-0.16212979 -0.012917068 -0.59644443
-0.15833555 -0.010831479 -0.59760004
-0.15663256 -0.008234676 -0.59600013
-0.15254945 -0.006930294 -0.59726679
-0.14949411 -0.0058023511 -0.59900004
-0.15126576 -0.0036319909 -0.59566671
-0.14777878 -0.002289305 -0.59678262
-0.14359015 -0.00088538375 -0.59800005
-0.1466293 0.0019272075 -0.59520012
-0.14247178 0.0027874575 -0.59652007
-0.13899013 0.0036050722 -0.59875
-0.14134179 0.0063472912 -0.59549999
-0.13742863 0.0076411334 -0.59705275
-0.13326509 0.0086266138 -0.59828579
-0.12849465 0.0092443917 -0.59850001
-0.13572554 0.010258468 -0.59500003
-0.13236456 0.011968954 -0.59626323
-0.12769805 0.012440445 -0.59728003
-0.12286537 0.013331071 -0.59812504
-0.11949647 0.014628708 -0.59900004
-0.12643062 0.015968613 -0.59549999
-0.12208068 0.016952591 -0.59623539
-0.11802374 0.01845648 -0.59727788
-0.11643529 0.021381183 -0.59540004
-0.11275571 0.02254642 -0.5967223
-0.10901819 0.023562945 -0.59833336
-0.11107337 0.025648132 -0.5952
-0.10704254 0.027178526 -0.59663641
-0.10340849 0.028699134 -0.59812504
-0.10592823 0.03108716 -0.59500003
-0.10249628 0.032411654 -0.59645838
-0.098403707 0.033354092 -0.59800011
-0.10149041 0.036190979 -0.59549999
-0.097193718 0.036997415 -0.59655559
-0.093249314 0.037854485 -0.59786671
-0.095286325 0.040166337 -0.59500003
-0.091774911 0.04203077 -0.59570009
-0.087680705 0.042909715 -0.59735298
-0.083674714 0.044192202 -0.59785718
-0.095694438 0.048026644 -0.59533334
-0.091897972 0.047390375 -0.59576476
-0.087576047 0.047791883 -0.5968501
-0.083537593 0.047618072 -0.59766674
-0.08599671 0.051018637 -0.597
-0.083155386 0.050774436 -0.59833336
-0.18547168 -0.021002747 -0.59300005
-0.18232824 -0.022404904 -0.59305888
-0.17819771 -0.021243783 -0.5931111
-0.18619853 -0.017440438 -0.59250009
-0.18274428 -0.01839502 -0.59126669
-0.17721565 -0.017746476 -0.59140915
-0.17290047 -0.016916599 -0.59275007
-0.16949427 -0.015351005 -0.59400004
-0.18555084 -0.014212516 -0.59100002
-0.17573965 -0.014188468 -0.59000003
-0.17263573 -0.013310064 -0.59076935
-0.16778868 -0.012490776 -0.59230012
-0.16292271 -0.010920224 -0.5932858
-0.16563225 -0.0096043888 -0.5903334
-0.16226184 -0.0085357893 -0.59142864
-0.15818389 -0.0067291018 -0.59257144
-0.15462066 -0.0057539176 -0.59400004
-0.15621705 -0.0037227008 -0.59111112
-0.15318844 -0.001989811 -0.59257895
-0.15142335 0.0025435505 -0.59200007
-0.14765017 0.0033431933 -0.59360003
-0.15041371 0.005935614 -0.59000003
-0.14752045 0.0068553453 -0.59207696
-0.14291842 0.0078877443 -0.5925625
-0.1390982 0.0091671608 -0.59350002
-0.14089544 0.01061008 -0.59079999
-0.13721389 0.01207311 -0.59180963
-0.13375288 0.013873096 -0.59300005
-0.13216022 0.017208742 -0.59122223
-0.12793237 0.018005395 -0.59223819
-0.12319948 0.019224036 -0.5933333
-0.1263849 0.021384461 -0.59042865
-0.12232312 0.022425203 -0.59195006
-0.11774199 0.022871658 -0.59340006
-0.11424941 0.024103686 -0.59400004
-0.12107046 0.025042906 -0.59100002
-0.11715067 0.02624966 -0.59113342
-0.11295315 0.027497932 -0.59250003
-0.10919923 0.028700029 -0.59350008
-0.11082217 0.031752251 -0.59083337
-0.10778144 0.032688506 -0.59247828
-0.10427491 0.034392159 -0.59366673
-0.10729249 0.037760962 -0.59079993
-0.10282195 0.037946478 -0.59277773
-0.098495781 0.038733047 -0.59350002
-0.1103143 0.040887967 -0.59000003
-0.10725696 0.042480856 -0.59121042
-0.10211647 0.042288907 -0.59221739
-0.097360484 0.042104587 -0.59290916
-0.09401802 0.043581448 -0.59371442
-0.10707363 0.045315824 -0.59250003
-0.10227 0.045832437 -0.5923
-0.096728668 0.045773059 -0.59325004
-0.093709648 0.045785993 -0.59400004
-0.1819313 -0.01566387 -0.58857149
-0.17881285 -0.015644735 -0.58900005
-0.18217121 -0.01306194 -0.58692306
-0.17740262 -0.012445464 -0.58765006
-0.17249832 -0.011289091 -0.58871436
-0.1762539 -0.0094541553 -0.58540004
-0.17240462 -0.0086712949 -0.58683336
-0.16747829 -0.0077045881 -0.58727282
-0.16312739 -0.0064690313 -0.58845466
-0.16587989 -0.0046165506 -0.58500004
-0.16194184 -0.0032822178 -0.58611113
-0.15805149 -0.0020023203 -0.58779997
-0.15688333 0.0024519204 -0.5860455
-0.15368453 0.0032367674 -0.58823079
-0.15541685 0.0058853119 -0.58500004
-0.15227164 0.0071426141 -0.58688235
-0.14813091 0.0086822836 -0.58775002
-0.14489147 0.0090976553 -0.58900005
-0.15018532 0.010086057 -0.58500004
-0.1470529 0.011347835 -0.58581251
-0.14269482 0.012503289 -0.58713043
-0.13868695 0.013951774 -0.58860004
-0.14161347 0.015606089 -0.58525002
-0.13734835 0.017039094 -0.58641678
-0.1339701 0.018709578 -0.58833343
-0.13588583 0.020937983 -0.58500004
-0.1321632 0.022217704 -0.58650011
-0.12780656 0.023356371 -0.58794731
-0.12403266 0.024683224 -0.58875006
-0.12677367 0.026437012 -0.58533335
-0.12222172 0.027340643 -0.58722228
-0.11801358 0.028417742 -0.58840007
-0.11434117 0.029187627 -0.58900005
-0.12088879 0.030039597 -0.58500004
-0.1174778 0.032208722 -0.58626676
-0.1127602 0.032619368 -0.58838892
-0.13553706 0.037390903 -0.58500004
-0.13239814 0.038441088 -0.58500004
-0.11707761 0.037338622 -0.58607703
-0.11211128 0.037605584 -0.58836007
-0.11519871 0.040749364 -0.588
-0.11362121 0.040749364 -0.588
-0.1814737 -0.010880344 -0.583
-0.17917503 -0.010899005 -0.58400005
-0.18142369 -0.0090144388 -0.58074999
-0.17766811 -0.0075807571 -0.58199996
-0.17295359 -0.0062771863 -0.58310008
-0.16910678 -0.0056522069 -0.58350003
-0.17587309 -0.0045770928 -0.58000004
-0.1725174 -0.0035391364 -0.5804286
-0.16745168 -0.0027123096 -0.58159995
-0.16351759 -0.0013675621 -0.58336371
-0.1657588 0.0016701689 -0.58000004
-0.1622936 0.0027177099 -0.58153337
-0.15898107 0.0034290059 -0.58400011
-0.1617237 0.0067788535 -0.58059996
-0.15745799 0.0076232683 -0.58195651
-0.15369019 0.0088456143 -0.58242863
-0.15512586 0.011041061 -0.58000004
-0.1519524 0.011954294 -0.58109528
-0.14850602 0.013300581 -0.5836364
-0.14470601 0.01426238 -0.58400005
-0.1509764 0.015205903 -0.58000004
-0.14708725 0.017010488 -0.58139133
-0.14265455 0.017729586 -0.58314282
-0.13870004 0.019242238 -0.58400005
-0.14578959 0.020411953 -0.58000004
-0.14197265 0.021412382 -0.5808
-0.13758935 0.022918442 -0.58236009
-0.13337927 0.02431846 -0.58380002
-0.13648684 0.027483623 -0.58014286
-0.13240787 0.027652634 -0.58148146
-0.12772217 0.028630905 -0.58276474
-0.12348673 0.0295316 -0.58385724
-0.14094858 0.033253547 -0.58000004
-0.13738152 0.032468073 -0.57999998
-0.13240549 0.032411128 -0.58045
-0.1274453 0.032469001 -0.58149999
-0.12262231 0.032569695 -0.58330005
-0.13711841 0.035382729 -0.58157146
-0.13236871 0.036191776 -0.58257145
-0.1274329 0.036594022 -0.58249998
-0.1226332 0.036762591 -0.58335
-0.11963763 0.036802787 -0.58400005
-0.18175635 -0.0064536273 -0.57700008
-0.17895371 -0.0059415749 -0.5776667
-0.18575028 -0.0019585732 -0.57525003
-0.18260247 -0.0036664968 -0.57530773
-0.1776024 -0.0025594148 -0.57688898
-0.17297783 -0.0011039199 -0.57841676
-0.16901124 -0.00075801264 -0.57900012
-0.17605208 0.00062407879 -0.57550001
-0.17220762 0.0026230218 -0.57703578
-0.16745007 0.0029012817 -0.578381
-0.17117649 0.0064815478 -0.57583332
-0.16743557 0.0067704595 -0.57662511
-0.16271362 0.0083314944 -0.57725006
-0.15827605 0.0099696796 -0.57825005
-0.16061237 0.010955399 -0.57550001
-0.15744182 0.01243095 -0.57690001
-0.15399002 0.013431344 -0.57833338
-0.15582184 0.015986834 -0.57600003
-0.1524816 0.017231274 -0.57670838
-0.14909762 0.018403035 -0.57825005
-0.1507033 0.020235989 -0.57500005
-0.14758527 0.022281427 -0.57651854
-0.14294112 0.023606716 -0.57784623
-0.14708795 0.027433064 -0.57561117
-0.14255856 0.027579242 -0.57667863
-0.13871671 0.027787142 -0.57846159
-0.14185824 0.031120839 -0.57825005
-0.1393248 0.030770913 -0.57900006
-0.18228598 -0.0012500025 -0.57318181
-0.17938711 -0.00040727621 -0.57300001
-0.18174949 0.0017360351 -0.57090914
-0.17764233 0.0028202771 -0.5721072
-0.17441452 0.0037105349 -0.57350004
-0.17675051 0.0065965522 -0.57083344
-0.17272577 0.0080716163 -0.5718261
-0.16742522 0.0093548559 -0.57240003
-0.16390094 0.0096301753 -0.57349998
-0.17100102 0.01086339 -0.57066673
-0.16698314 0.011436297 -0.57088894
-0.16238064 0.012895292 -0.57180005
-0.15921558 0.013998947 -0.57325006
-0.16093238 0.016741438 -0.57025003
-0.15788095 0.017442953 -0.57229173
-0.15454774 0.019170357 -0.574
-0.16060707 0.024153059 -0.57000005
-0.15750568 0.022172412 -0.57170016
-0.15232475 0.022309329 -0.57304168
-0.14941458 0.024322553 -0.574
-0.16104081 0.02587381 -0.57033336
-0.1571812 0.02644415 -0.57178962
-0.15208162 0.026825881 -0.5724501
-0.14907238 0.027242132 -0.574
-0.18272144 0.0033868006 -0.56857145
-0.18206666 0.006651293 -0.56721431
-0.17811742 0.0084797069 -0.5684706
-0.17457293 0.009810199 -0.56900001
-0.17671415 0.011729214 -0.56716663
-0.17264324 0.013120271 -0.56780779
-0.16759273 0.01369492 -0.56862503
-0.16405684 0.014577027 -0.56900001
-0.1716661 0.017507901 -0.56638461
-0.16749465 0.017931797 -0.56743336
-0.16277511 0.018021699 -0.56857896
-0.17668948 0.021443367 -0.56600004
-0.17190608 0.022378307 -0.56608337
-0.1678447 0.022495339 -0.56690007
-0.1625776 0.022281164 -0.56820005
-0.16661942 0.025228478 -0.56733334
-0.16288227 0.025537858 -0.56828582
-0.18198007 0.0091194091 -0.5642001
-0.17940891 0.0097412346 -0.565
-0.18184863 0.011816468 -0.56400007
-0.17789254 0.013447845 -0.56446677
-0.17707184 0.017616848 -0.56472719
-0.17351413 0.018278113 -0.56500006
-0.17587204 0.020898342 -0.565
-0.17334571 0.020898342 -0.565
0 0 0
