# .PCD v0.7 - Point Cloud Data file format
VERSION 0.7
FIELDS x y z
SIZE 4 4 4
TYPE F F F
COUNT 1 1 1
WIDTH 1333
HEIGHT 1
VIEWPOINT 0 0 0 1 0 0 0
POINTS 1333
DATA ascii
-0.015539127 -0.10951877 -0.66799998
-0.014319985 -0.10984668 -0.67000002
-0.013054319 -0.10984668 -0.67000002
-0.011806247 -0.11001063 -0.671
-0.010538691 -0.11001063 -0.671
-0.0092711346 -0.11001063 -0.671
-0.0080035795 -0.11001063 -0.671
-0.0067360234 -0.11001063 -0.671
-0.0054766173 -0.11017457 -0.67199999
-0.0042071724 -0.11017457 -0.67199999
-0.0029377276 -0.11017457 -0.67199999
-0.0016707653 -0.11033852 -0.67299998
-0.00039943153 -0.11033852 -0.67299998
0.00087449345 -0.11066643 -0.67500001
0.0021496054 -0.11066643 -0.67500001
0.0034247176 -0.11066643 -0.67500001
0.0047067921 -0.11083038 -0.676
0.0059837932 -0.11083038 -0.676
0.0072607943 -0.11083038 -0.676
0.0085377954 -0.11083038 -0.676
0.009814796 -0.11083038 -0.676
0.011091798 -0.11083038 -0.676
0.012368798 -0.11083038 -0.676
0.0136458 -0.11083038 -0.676
0.014944876 -0.11099432 -0.67699999
0.016223766 -0.11099432 -0.67699999
-0.05236803 -0.1112518 -0.671
-0.051100478 -0.1112518 -0.671
-0.049758654 -0.111086 -0.67000002
-0.048348229 -0.1107544 -0.66799998
-0.047015853 -0.1105886 -0.667
-0.045687255 -0.1104228 -0.66600001
-0.044429146 -0.1104228 -0.66600001
-0.043171033 -0.1104228 -0.66600001
-0.041912924 -0.1104228 -0.66600001
-0.040654812 -0.1104228 -0.66600001
-0.039396703 -0.1104228 -0.66600001
-0.038138594 -0.1104228 -0.66600001
-0.036880482 -0.1104228 -0.66600001
-0.035622373 -0.1104228 -0.66600001
-0.034364261 -0.1104228 -0.66600001
-0.033106152 -0.1104228 -0.66600001
-0.031895861 -0.1105886 -0.667
-0.03063586 -0.1105886 -0.667
-0.02937586 -0.1105886 -0.667
-0.028115861 -0.1105886 -0.667
-0.026855862 -0.1105886 -0.667
-0.025595862 -0.1105886 -0.667
-0.024335861 -0.1105886 -0.667
-0.023110459 -0.1107544 -0.66799998
-0.021848571 -0.1107544 -0.66799998
-0.020586681 -0.1107544 -0.66799998
-0.019324793 -0.1107544 -0.66799998
-0.018116986 -0.111086 -0.67000002
-0.016851319 -0.111086 -0.67000002
-0.015585653 -0.111086 -0.67000002
-0.014341358 -0.1112518 -0.671
-0.013073802 -0.1112518 -0.671
-0.011806247 -0.1112518 -0.671
-0.010538691 -0.1112518 -0.671
-0.0092849517 -0.1114176 -0.67199999
-0.0080155069 -0.1114176 -0.67199999
-0.0067460621 -0.1114176 -0.67199999
-0.0054766173 -0.1114176 -0.67199999
-0.0042134332 -0.1115834 -0.67299998
-0.0029420992 -0.1115834 -0.67299998
-0.0016757306 -0.11191501 -0.67500001
-0.00040061856 -0.11191501 -0.67500001
0.00087449345 -0.11191501 -0.67500001
0.0021527901 -0.11208081 -0.676
0.0034297912 -0.11208081 -0.676
0.0047067921 -0.11208081 -0.676
0.0059837932 -0.11208081 -0.676
0.0072607943 -0.11208081 -0.676
0.0085377954 -0.11208081 -0.676
0.0098293154 -0.1122466 -0.67699999
0.011091798 -0.11208081 -0.676
0.012387095 -0.1122466 -0.67699999
0.013665985 -0.1122466 -0.67699999
0.014944876 -0.1122466 -0.67699999
0.016295658 -0.112744 -0.68000001
-0.05236803 -0.11249298 -0.671
-0.051024321 -0.11232533 -0.67000002
-0.049610119 -0.11199003 -0.66799998
-0.048348229 -0.11199003 -0.66799998
-0.047015853 -0.11182238 -0.667
-0.045755856 -0.11182238 -0.667
-0.044429146 -0.11165474 -0.66600001
-0.043171033 -0.11165474 -0.66600001
-0.041912924 -0.11165474 -0.66600001
-0.040654812 -0.11165474 -0.66600001
-0.039396703 -0.11165474 -0.66600001
-0.038138594 -0.11165474 -0.66600001
-0.036880482 -0.11165474 -0.66600001
-0.035622373 -0.11165474 -0.66600001
-0.034364261 -0.11165474 -0.66600001
-0.033155859 -0.11182238 -0.667
-0.031943679 -0.11199003 -0.66799998
-0.030681791 -0.11199003 -0.66799998
-0.029419901 -0.11199003 -0.66799998
-0.028158013 -0.11199003 -0.66799998
-0.026896125 -0.11199003 -0.66799998
-0.025634235 -0.11199003 -0.66799998
-0.02444532 -0.11232533 -0.67000002
-0.023179652 -0.11232533 -0.67000002
-0.021913987 -0.11232533 -0.67000002
-0.020648319 -0.11232533 -0.67000002
-0.019382652 -0.11232533 -0.67000002
-0.018144026 -0.11249298 -0.671
-0.01687647 -0.11249298 -0.671
-0.015608914 -0.11249298 -0.671
-0.014341358 -0.11249298 -0.671
-0.013073802 -0.11249298 -0.671
-0.011823841 -0.11266063 -0.67199999
-0.010554397 -0.11266063 -0.67199999
-0.0092849517 -0.11266063 -0.67199999
-0.0080155069 -0.11266063 -0.67199999
-0.0067561008 -0.11282828 -0.67299998
-0.0054847668 -0.11282828 -0.67299998
-0.0042259544 -0.11316358 -0.67500001
-0.0029508425 -0.11316358 -0.67500001
-0.0016782131 -0.11333123 -0.676
-0.00040121208 -0.11333123 -0.676
0.00087578897 -0.11333123 -0.676
0.0021527901 -0.11333123 -0.676
0.0034297912 -0.11333123 -0.676
0.0047067921 -0.11333123 -0.676
0.0059926449 -0.11349887 -0.67699999
0.0072715348 -0.11349887 -0.67699999
0.0085504251 -0.11349887 -0.67699999
0.0098293154 -0.11349887 -0.67699999
0.011108205 -0.11349887 -0.67699999
0.012387095 -0.11349887 -0.67699999
0.013706358 -0.11383418 -0.67900002
0.015011101 -0.11400183 -0.68000001
0.016343586 -0.11433712 -0.68199998
0.017657775 -0.11450478 -0.68300003
-0.052289989 -0.11356466 -0.67000002
-0.050872006 -0.11322565 -0.66799998
-0.049610119 -0.11322565 -0.66799998
-0.048348229 -0.11322565 -0.66799998
-0.047015853 -0.11305615 -0.667
-0.045755856 -0.11305615 -0.667
-0.044495855 -0.11305615 -0.667
-0.043235857 -0.11305615 -0.667
-0.041975856 -0.11305615 -0.667
-0.040715855 -0.11305615 -0.667
-0.039455857 -0.11305615 -0.667
-0.038195856 -0.11305615 -0.667
-0.036935858 -0.11305615 -0.667
-0.035675857 -0.11305615 -0.667
-0.03441586 -0.11305615 -0.667
-0.033205569 -0.11322565 -0.66799998
-0.032039318 -0.11356466 -0.67000002
-0.030773653 -0.11356466 -0.67000002
-0.029552028 -0.11373416 -0.671
-0.028284471 -0.11373416 -0.671
-0.026976652 -0.11356466 -0.67000002
-0.025710987 -0.11356466 -0.67000002
-0.024481805 -0.11373416 -0.671
-0.023214249 -0.11373416 -0.671
-0.021946693 -0.11373416 -0.671
-0.020679137 -0.11373416 -0.671
-0.019411581 -0.11373416 -0.671
-0.018144026 -0.11373416 -0.671
-0.01687647 -0.11373416 -0.671
-0.015608914 -0.11373416 -0.671
-0.014362731 -0.11390366 -0.67199999
-0.013093286 -0.11390366 -0.67199999
-0.011823841 -0.11390366 -0.67199999
-0.010570102 -0.11407315 -0.67299998
-0.0092987688 -0.11407315 -0.67299998
-0.0080512911 -0.11441216 -0.67500001
-0.0067761787 -0.11441216 -0.67500001
-0.0055092163 -0.11458165 -0.676
-0.0042322152 -0.11458165 -0.676
-0.0029552141 -0.11458165 -0.676
-0.0016782131 -0.11458165 -0.676
-0.00040180556 -0.11475115 -0.67699999
0.0008770845 -0.11475115 -0.67699999
0.0021559745 -0.11475115 -0.67699999
0.0034348646 -0.11475115 -0.67699999
0.0047137546 -0.11475115 -0.67699999
0.0059926449 -0.11475115 -0.67699999
0.0072930171 -0.11509015 -0.67900002
0.0085756853 -0.11509015 -0.67900002
0.0098728724 -0.11525965 -0.68000001
0.01115743 -0.11525965 -0.68000001
0.012441987 -0.11525965 -0.68000001
0.013766916 -0.11559865 -0.68199998
0.015055251 -0.11559865 -0.68199998
0.016367551 -0.11576816 -0.68300003
0.017657775 -0.11576816 -0.68300003
0.019031227 -0.11627664 -0.68599999
-0.053555656 -0.11480398 -0.67000002
-0.052289989 -0.11480398 -0.67000002
-0.050872006 -0.11446128 -0.66799998
-0.049610119 -0.11446128 -0.66799998
-0.048348229 -0.11446128 -0.66799998
-0.047015853 -0.11428993 -0.667
-0.045755856 -0.11428993 -0.667
-0.044495855 -0.11428993 -0.667
-0.043235857 -0.11428993 -0.667
-0.041975856 -0.11428993 -0.667
-0.040715855 -0.11428993 -0.667
-0.039455857 -0.11428993 -0.667
-0.038195856 -0.11428993 -0.667
-0.036991231 -0.11446128 -0.66799998
-0.035729345 -0.11446128 -0.66799998
-0.034467455 -0.11446128 -0.66799998
-0.033354696 -0.11497533 -0.671
-0.03208714 -0.11497533 -0.671
-0.030819584 -0.11497533 -0.671
-0.029552028 -0.11497533 -0.671
-0.028284471 -0.11497533 -0.671
-0.027016915 -0.11497533 -0.671
-0.025749361 -0.11497533 -0.671
-0.024481805 -0.11497533 -0.671
-0.023214249 -0.11497533 -0.671
-0.021979399 -0.11514668 -0.67199999
-0.020709954 -0.11514668 -0.67199999
-0.019440509 -0.11514668 -0.67199999
-0.018171065 -0.11514668 -0.67199999
-0.01690162 -0.11514668 -0.67199999
-0.015632175 -0.11514668 -0.67199999
-0.014384104 -0.11531802 -0.67299998
-0.01311277 -0.11531802 -0.67299998
-0.011876627 -0.11566073 -0.67500001
-0.010601515 -0.11566073 -0.67500001
-0.009326403 -0.11566073 -0.67500001
-0.0080632186 -0.11583208 -0.676
-0.0067862174 -0.11583208 -0.676
-0.0055173659 -0.11600342 -0.67699999
-0.004238476 -0.11600342 -0.67699999
-0.0029595857 -0.11600342 -0.67699999
-0.0016806957 -0.11600342 -0.67699999
-0.00040299259 -0.11634613 -0.67900002
0.00087967567 -0.11634613 -0.67900002
0.0021623438 -0.11634613 -0.67900002
0.0034450123 -0.11634613 -0.67900002
0.0047276802 -0.11634613 -0.67900002
0.0060103489 -0.11634613 -0.67900002
0.0073037576 -0.11651748 -0.68000001
0.0086135743 -0.11686017 -0.68199998
0.0099019101 -0.11686017 -0.68199998
0.011190245 -0.11686017 -0.68199998
0.012478581 -0.11686017 -0.68199998
0.013766916 -0.11686017 -0.68199998
0.015077327 -0.11703153 -0.68300003
0.016367551 -0.11703153 -0.68300003
0.017683629 -0.11720287 -0.68400002
0.019031227 -0.11754557 -0.68599999
0.020386381 -0.11788827 -0.68800002
-0.053635586 -0.11621651 -0.671
-0.052289989 -0.11604331 -0.67000002
-0.051024321 -0.11604331 -0.67000002
-0.049610119 -0.11569691 -0.66799998
-0.048348229 -0.11569691 -0.66799998
-0.047086343 -0.11569691 -0.66799998
-0.045755856 -0.11552371 -0.667
-0.044495855 -0.11552371 -0.667
-0.043235857 -0.11552371 -0.667
-0.042038787 -0.11569691 -0.66799998
-0.040776897 -0.11569691 -0.66799998
-0.039515011 -0.11569691 -0.66799998
-0.038253121 -0.11569691 -0.66799998
-0.037101988 -0.11604331 -0.67000002
-0.03583632 -0.11604331 -0.67000002
-0.034622252 -0.11621651 -0.671
-0.033354696 -0.11621651 -0.671
-0.03208714 -0.11621651 -0.671
-0.030865513 -0.11638971 -0.67199999
-0.029596068 -0.11638971 -0.67199999
-0.028326623 -0.11638971 -0.67199999
-0.027057178 -0.11638971 -0.67199999
-0.025787733 -0.11638971 -0.67199999
-0.024518289 -0.11638971 -0.67199999
-0.023248844 -0.11638971 -0.67199999
-0.021979399 -0.11638971 -0.67199999
-0.020740774 -0.1165629 -0.67299998
-0.01946944 -0.1165629 -0.67299998
-0.018198105 -0.1165629 -0.67299998
-0.016926771 -0.1165629 -0.67299998
-0.015655437 -0.1165629 -0.67299998
-0.014426851 -0.1169093 -0.67500001
-0.013151739 -0.1169093 -0.67500001
-0.011894221 -0.1170825 -0.676
-0.010617221 -0.1170825 -0.676
-0.0093402192 -0.1170825 -0.676
-0.008075146 -0.1172557 -0.67699999
-0.0067962562 -0.1172557 -0.67699999
-0.0055336654 -0.1176021 -0.67900002
-0.0042509972 -0.1176021 -0.67900002
-0.002968329 -0.1176021 -0.67900002
-0.0016881434 -0.1177753 -0.68000001
-0.00040358611 -0.1177753 -0.68000001
0.0008809712 -0.1177753 -0.68000001
0.0021655285 -0.1177753 -0.68000001
0.0034500856 -0.1177753 -0.68000001
0.0047346433 -0.1177753 -0.68000001
0.0060192002 -0.1177753 -0.68000001
0.007325239 -0.11812169 -0.68199998
0.0086135743 -0.11812169 -0.68199998
0.0099019101 -0.11812169 -0.68199998
0.011190245 -0.11812169 -0.68199998
0.012478581 -0.11812169 -0.68199998
0.013787103 -0.1182949 -0.68300003
0.015077327 -0.1182949 -0.68300003
0.016391516 -0.1184681 -0.68400002
0.017735334 -0.11881449 -0.68599999
0.019058969 -0.11898769 -0.68699998
0.020386381 -0.11916089 -0.68800002
0.021780612 -0.11968049 -0.69099998
-0.053635586 -0.11745768 -0.671
-0.05236803 -0.11745768 -0.671
-0.051024321 -0.11728264 -0.67000002
-0.049758654 -0.11728264 -0.67000002
-0.048348229 -0.11693253 -0.66799998
-0.047086343 -0.11693253 -0.66799998
-0.045824453 -0.11693253 -0.66799998
-0.044562563 -0.11693253 -0.66799998
-0.043300677 -0.11693253 -0.66799998
-0.042038787 -0.11693253 -0.66799998
-0.040776897 -0.11693253 -0.66799998
-0.039633319 -0.11728264 -0.67000002
-0.038367655 -0.11728264 -0.67000002
-0.037157364 -0.11745768 -0.671
-0.035889808 -0.11745768 -0.671
-0.034673847 -0.11763273 -0.67199999
-0.033404402 -0.11763273 -0.67199999
-0.032134958 -0.11763273 -0.67199999
-0.030865513 -0.11763273 -0.67199999
-0.02964011 -0.11780778 -0.67299998
-0.028368777 -0.11780778 -0.67299998
-0.027097443 -0.11780778 -0.67299998
-0.025826108 -0.11780778 -0.67299998
-0.024554774 -0.11780778 -0.67299998
-0.023283441 -0.11780778 -0.67299998
-0.022012107 -0.11780778 -0.67299998
-0.020740774 -0.11780778 -0.67299998
-0.019527299 -0.11815788 -0.67500001
-0.018252186 -0.11815788 -0.67500001
-0.016977075 -0.11815788 -0.67500001
-0.015701963 -0.11815788 -0.67500001
-0.014448224 -0.11833292 -0.676
-0.013171223 -0.11833292 -0.676
-0.011894221 -0.11833292 -0.676
-0.010632927 -0.11850797 -0.67699999
-0.0093540363 -0.11850797 -0.67699999
-0.008075146 -0.11850797 -0.67699999
-0.0068163341 -0.11885808 -0.67900002
-0.0055418154 -0.11903312 -0.68000001
-0.004257258 -0.11903312 -0.68000001
-0.0029727006 -0.11903312 -0.68000001
-0.0016931085 -0.11938322 -0.68199998
-0.00040477311 -0.11938322 -0.68199998
0.00088356226 -0.11938322 -0.68199998
0.0021718976 -0.11938322 -0.68199998
0.0034602329 -0.11938322 -0.68199998
0.0047485684 -0.11938322 -0.68199998
0.0060369037 -0.11938322 -0.68199998
0.0073359804 -0.11955827 -0.68300003
0.0086262049 -0.11955827 -0.68300003
0.0099164294 -0.11955827 -0.68300003
0.011206654 -0.11955827 -0.68300003
0.012496878 -0.11955827 -0.68300003
0.013787103 -0.11955827 -0.68300003
0.015099403 -0.11973332 -0.68400002
0.016439443 -0.12008341 -0.68599999
0.017761188 -0.12025846 -0.68699998
0.019058969 -0.12025846 -0.68699998
0.020386381 -0.12043352 -0.68800002
0.021749092 -0.1207836 -0.69
0.023085948 -0.12095866 -0.69099998
0.024461884 -0.12130876 -0.69300002
-0.053635586 -0.11869886 -0.671
-0.05236803 -0.11869886 -0.671
-0.051100478 -0.11869886 -0.671
-0.049758654 -0.11852197 -0.67000002
-0.048492987 -0.11852197 -0.67000002
-0.047227319 -0.11852197 -0.67000002
-0.045961656 -0.11852197 -0.67000002
-0.044695988 -0.11852197 -0.67000002
-0.043430321 -0.11852197 -0.67000002
-0.042164654 -0.11852197 -0.67000002
-0.040960029 -0.11869886 -0.671
-0.039692473 -0.11869886 -0.671
-0.038424917 -0.11869886 -0.671
-0.037212737 -0.11887576 -0.67199999
-0.035943292 -0.11887576 -0.67199999
-0.034673847 -0.11887576 -0.67199999
-0.033404402 -0.11887576 -0.67199999
-0.032182779 -0.11905265 -0.67299998
-0.030911444 -0.11905265 -0.67299998
-0.02964011 -0.11905265 -0.67299998
-0.028368777 -0.11905265 -0.67299998
-0.027097443 -0.11905265 -0.67299998
-0.025826108 -0.11905265 -0.67299998
-0.024554774 -0.11905265 -0.67299998
-0.023352634 -0.11940645 -0.67500001
-0.022077523 -0.11940645 -0.67500001
-0.02080241 -0.11940645 -0.67500001
-0.019527299 -0.11940645 -0.67500001
-0.018279226 -0.11958335 -0.676
-0.017002225 -0.11958335 -0.676
-0.015725225 -0.11958335 -0.676
-0.014448224 -0.11958335 -0.676
-0.013190706 -0.11976025 -0.67699999
-0.011911816 -0.11976025 -0.67699999
-0.010632927 -0.11976025 -0.67699999
-0.0093816705 -0.12011405 -0.67900002
-0.0081109302 -0.12029094 -0.68000001
-0.0068263724 -0.12029094 -0.68000001
-0.0055581145 -0.12064474 -0.68199998
-0.0042697792 -0.12064474 -0.68199998
-0.0029814439 -0.12064474 -0.68199998
-0.0016931085 -0.12064474 -0.68199998
-0.00040477311 -0.12064474 -0.68199998
0.00088356226 -0.12064474 -0.68199998
0.0021750825 -0.12082165 -0.68300003
0.0034653067 -0.12082165 -0.68300003
0.0047555314 -0.12082165 -0.68300003
0.0060457559 -0.12082165 -0.68300003
0.0073359804 -0.12082165 -0.68300003
0.0086262049 -0.12082165 -0.68300003
0.0099309478 -0.12099854 -0.68400002
0.011223062 -0.12099854 -0.68400002
0.012515175 -0.12099854 -0.68400002
0.013807288 -0.12099854 -0.68400002
0.015143552 -0.12135233 -0.68599999
0.016463406 -0.12152923 -0.68699998
0.017761188 -0.12152923 -0.68699998
0.019058969 -0.12152923 -0.68699998
0.020386381 -0.12170614 -0.68800002
0.021749092 -0.12205993 -0.69
0.023085948 -0.12223683 -0.69099998
0.024391286 -0.12223683 -0.69099998
0.025696622 -0.12223683 -0.69099998
-0.065011635 -0.12226376 -0.68400002
-0.063626364 -0.12208502 -0.68300003
-0.062336143 -0.12208502 -0.68300003
-0.060956534 -0.12190626 -0.68199998
-0.055066787 -0.12029753 -0.67299998
-0.05371552 -0.12011878 -0.67199999
-0.05236803 -0.11994004 -0.671
-0.051100478 -0.11994004 -0.671
-0.049832921 -0.11994004 -0.671
-0.048565365 -0.11994004 -0.671
-0.047227319 -0.11976129 -0.67000002
-0.045961656 -0.11976129 -0.67000002
-0.044762697 -0.11994004 -0.671
-0.043495141 -0.11994004 -0.671
-0.042227585 -0.11994004 -0.671
-0.041021071 -0.12011878 -0.67199999
-0.039751627 -0.12011878 -0.67199999
-0.038482182 -0.12011878 -0.67199999
-0.037212737 -0.12011878 -0.67199999
-0.03599678 -0.12029753 -0.67299998
-0.034725446 -0.12029753 -0.67299998
-0.033454113 -0.12029753 -0.67299998
-0.032278419 -0.12065503 -0.67500001
-0.031003308 -0.12065503 -0.67500001
-0.029728195 -0.12065503 -0.67500001
-0.028453084 -0.12065503 -0.67500001
-0.027177971 -0.12065503 -0.67500001
-0.02590286 -0.12065503 -0.67500001
-0.024664233 -0.12083378 -0.676
-0.023387231 -0.12083378 -0.676
-0.022110229 -0.12083378 -0.676
-0.02083323 -0.12083378 -0.676
-0.019556228 -0.12083378 -0.676
-0.018279226 -0.12083378 -0.676
-0.017002225 -0.12083378 -0.676
-0.015748486 -0.12101252 -0.67699999
-0.014469597 -0.12101252 -0.67699999
-0.013229676 -0.12137002 -0.67900002
-0.011947007 -0.12137002 -0.67900002
-0.010680044 -0.12154877 -0.68000001
-0.0093954867 -0.12154877 -0.68000001
-0.0081347851 -0.12190626 -0.68199998
-0.0068464498 -0.12190626 -0.68199998
-0.0055662645 -0.12208502 -0.68300003
-0.00427604 -0.12208502 -0.68300003
-0.0029858155 -0.12208502 -0.68300003
-0.0016955911 -0.12208502 -0.68300003
-0.00040536665 -0.12208502 -0.68300003
0.00088485784 -0.12208502 -0.68300003
0.0021750825 -0.12208502 -0.68300003
0.0034653067 -0.12208502 -0.68300003
0.0047555314 -0.12208502 -0.68300003
0.0060546077 -0.12226376 -0.68400002
0.0073467209 -0.12226376 -0.68400002
0.0086388346 -0.12226376 -0.68400002
0.0099599855 -0.12262125 -0.68599999
0.011255877 -0.12262125 -0.68599999
0.012551769 -0.12262125 -0.68599999
0.01384766 -0.12262125 -0.68599999
0.015165627 -0.1228 -0.68699998
0.016463406 -0.1228 -0.68699998
0.017761188 -0.1228 -0.68699998
0.019086713 -0.12297875 -0.68800002
0.020386381 -0.12297875 -0.68800002
0.021749092 -0.12333625 -0.69
0.023085948 -0.12351499 -0.69099998
0.024391286 -0.12351499 -0.69099998
0.025696622 -0.12351499 -0.69099998
0.027001958 -0.12351499 -0.69099998
-0.064916588 -0.12334839 -0.68300003
-0.063533202 -0.12316778 -0.68199998
-0.06224487 -0.12316778 -0.68199998
-0.06077778 -0.12280659 -0.68000001
-0.059405733 -0.122626 -0.67900002
-0.05795186 -0.1222648 -0.67699999
-0.056589257 -0.1220842 -0.676
-0.055066787 -0.1215424 -0.67299998
-0.05371552 -0.12136181 -0.67199999
-0.052446075 -0.12136181 -0.67199999
-0.05117663 -0.12136181 -0.67199999
-0.049832921 -0.12118121 -0.671
-0.048565365 -0.12118121 -0.671
-0.047297809 -0.12118121 -0.671
-0.046030253 -0.12118121 -0.671
-0.044762697 -0.12118121 -0.671
-0.043559961 -0.12136181 -0.67199999
-0.042290516 -0.12136181 -0.67199999
-0.041021071 -0.12136181 -0.67199999
-0.039751627 -0.12136181 -0.67199999
-0.038539447 -0.1215424 -0.67299998
-0.037268113 -0.1215424 -0.67299998
-0.03599678 -0.1215424 -0.67299998
-0.034828644 -0.12190361 -0.67500001
-0.03355353 -0.12190361 -0.67500001
-0.032278419 -0.12190361 -0.67500001
-0.031049237 -0.1220842 -0.676
-0.029772237 -0.1220842 -0.676
-0.028495235 -0.1220842 -0.676
-0.027218234 -0.1220842 -0.676
-0.025941232 -0.1220842 -0.676
-0.024664233 -0.1220842 -0.676
-0.023387231 -0.1220842 -0.676
-0.022110229 -0.1220842 -0.676
-0.020864047 -0.1222648 -0.67699999
-0.019585157 -0.1222648 -0.67699999
-0.018306267 -0.1222648 -0.67699999
-0.017027376 -0.1222648 -0.67699999
-0.015795011 -0.122626 -0.67900002
-0.014512343 -0.122626 -0.67900002
-0.013249159 -0.12280659 -0.68000001
-0.011999791 -0.12316778 -0.68199998
-0.010711456 -0.12316778 -0.68199998
-0.0094231209 -0.12316778 -0.68199998
-0.0081467135 -0.12334839 -0.68300003
-0.006856489 -0.12334839 -0.68300003
-0.0055662645 -0.12334839 -0.68300003
-0.00427604 -0.12334839 -0.68300003
-0.0029858155 -0.12334839 -0.68300003
-0.0016980737 -0.12352899 -0.68400002
-0.00040596013 -0.12352899 -0.68400002
0.00088615337 -0.12352899 -0.68400002
0.0021782669 -0.12352899 -0.68400002
0.0034805275 -0.12389018 -0.68599999
0.0047764191 -0.12389018 -0.68599999
0.0060723107 -0.12389018 -0.68599999
0.0073682023 -0.12389018 -0.68599999
0.0086640939 -0.12389018 -0.68599999
0.0099745039 -0.12407077 -0.68699998
0.011272285 -0.12407077 -0.68699998
0.012570065 -0.12407077 -0.68699998
0.013867846 -0.12407077 -0.68699998
0.015165627 -0.12407077 -0.68699998
0.016487373 -0.12425138 -0.68800002
0.017787043 -0.12425138 -0.68800002
0.019086713 -0.12425138 -0.68800002
0.020445643 -0.12461257 -0.69
0.021780612 -0.12479316 -0.69099998
0.023085948 -0.12479316 -0.69099998
0.024391286 -0.12479316 -0.69099998
0.025696622 -0.12479316 -0.69099998
0.027001958 -0.12479316 -0.69099998
-0.066109873 -0.12442931 -0.68199998
-0.064821541 -0.12442931 -0.68199998
-0.063533202 -0.12442931 -0.68199998
-0.062062334 -0.12406442 -0.68000001
-0.060688399 -0.12388197 -0.67900002
-0.059230749 -0.12351707 -0.67699999
-0.05786626 -0.12333462 -0.676
-0.056505546 -0.12315217 -0.67500001
-0.055066787 -0.12278727 -0.67299998
-0.05371552 -0.12260483 -0.67199999
-0.052446075 -0.12260483 -0.67199999
-0.05117663 -0.12260483 -0.67199999
-0.049907185 -0.12260483 -0.67199999
-0.04863774 -0.12260483 -0.67199999
-0.047368295 -0.12260483 -0.67199999
-0.046098851 -0.12260483 -0.67199999
-0.044829406 -0.12260483 -0.67199999
-0.043559961 -0.12260483 -0.67199999
-0.042353448 -0.12278727 -0.67299998
-0.041082114 -0.12278727 -0.67299998
-0.03981078 -0.12278727 -0.67299998
-0.038653981 -0.12315217 -0.67500001
-0.037378866 -0.12315217 -0.67500001
-0.036103755 -0.12315217 -0.67500001
-0.03488024 -0.12333462 -0.676
-0.03360324 -0.12333462 -0.676
-0.03232624 -0.12333462 -0.676
-0.031049237 -0.12333462 -0.676
-0.029772237 -0.12333462 -0.676
-0.028495235 -0.12333462 -0.676
-0.027218234 -0.12333462 -0.676
-0.025941232 -0.12333462 -0.676
-0.024700718 -0.12351707 -0.67699999
-0.023421828 -0.12351707 -0.67699999
-0.022142937 -0.12351707 -0.67699999
-0.020925684 -0.12388197 -0.67900002
-0.019643016 -0.12388197 -0.67900002
-0.018360348 -0.12388197 -0.67900002
-0.017077681 -0.12388197 -0.67900002
-0.015818274 -0.12406442 -0.68000001
-0.014576462 -0.12442931 -0.68199998
-0.013288126 -0.12442931 -0.68199998
-0.011999791 -0.12442931 -0.68199998
-0.010711456 -0.12442931 -0.68199998
-0.009436938 -0.12461177 -0.68300003
-0.0081467135 -0.12461177 -0.68300003
-0.006856489 -0.12461177 -0.68300003
-0.005574414 -0.12479421 -0.68400002
-0.0042823008 -0.12479421 -0.68400002
-0.0029901871 -0.12479421 -0.68400002
-0.0016980737 -0.12479421 -0.68400002
-0.00040714713 -0.1251591 -0.68599999
0.00088874443 -0.1251591 -0.68599999
0.002184636 -0.1251591 -0.68599999
0.0034856012 -0.12534155 -0.68699998
0.0047833817 -0.12534155 -0.68699998
0.0060811625 -0.12534155 -0.68699998
0.0073789428 -0.12534155 -0.68699998
0.0086767236 -0.12534155 -0.68699998
0.0099745039 -0.12534155 -0.68699998
0.011272285 -0.12534155 -0.68699998
0.012588363 -0.125524 -0.68800002
0.013888033 -0.125524 -0.68800002
0.015187703 -0.125524 -0.68800002
0.016487373 -0.125524 -0.68800002
0.017838748 -0.12588888 -0.69
0.019169938 -0.12607133 -0.69099998
0.020534538 -0.12643623 -0.69300002
0.021843653 -0.12643623 -0.69300002
0.023152769 -0.12643623 -0.69300002
0.024461884 -0.12643623 -0.69300002
0.025696622 -0.12607133 -0.69099998
0.027001958 -0.12607133 -0.69099998
-0.066109873 -0.12569083 -0.68199998
-0.064821541 -0.12569083 -0.68199998
-0.063346893 -0.12532224 -0.68000001
-0.062062334 -0.12532224 -0.68000001
-0.060509641 -0.12476934 -0.67699999
-0.05914326 -0.12458505 -0.676
-0.05786626 -0.12458505 -0.676
-0.056505546 -0.12440075 -0.67500001
-0.055230435 -0.12440075 -0.67500001
-0.053795453 -0.12403215 -0.67299998
-0.05252412 -0.12403215 -0.67299998
-0.051252786 -0.12403215 -0.67299998
-0.049907185 -0.12384786 -0.67199999
-0.04863774 -0.12384786 -0.67199999
-0.047368295 -0.12384786 -0.67199999
-0.046098851 -0.12384786 -0.67199999
-0.044896115 -0.12403215 -0.67299998
-0.043624781 -0.12403215 -0.67299998
-0.042479314 -0.12440075 -0.67500001
-0.041204203 -0.12440075 -0.67500001
-0.039929092 -0.12440075 -0.67500001
-0.038711242 -0.12458505 -0.676
-0.037434243 -0.12458505 -0.676
-0.036157243 -0.12458505 -0.676
-0.03488024 -0.12458505 -0.676
-0.03360324 -0.12458505 -0.676
-0.03232624 -0.12458505 -0.676
-0.031049237 -0.12458505 -0.676
-0.029772237 -0.12458505 -0.676
-0.028537387 -0.12476934 -0.67699999
-0.027258497 -0.12476934 -0.67699999
-0.025979606 -0.12476934 -0.67699999
-0.024700718 -0.12476934 -0.67699999
-0.023491021 -0.12513794 -0.67900002
-0.022208354 -0.12513794 -0.67900002
-0.020956503 -0.12532224 -0.68000001
-0.019671945 -0.12532224 -0.68000001
-0.018387388 -0.12532224 -0.68000001
-0.017153133 -0.12569083 -0.68199998
-0.015864797 -0.12569083 -0.68199998
-0.014597836 -0.12587513 -0.68300003
-0.013307611 -0.12587513 -0.68300003
-0.012017387 -0.12587513 -0.68300003
-0.010727162 -0.12587513 -0.68300003
-0.009436938 -0.12587513 -0.68300003
-0.0081586409 -0.12605943 -0.68400002
-0.0068665277 -0.12605943 -0.68400002
-0.005574414 -0.12605943 -0.68400002
-0.004294822 -0.12642802 -0.68599999
-0.0029989304 -0.12642802 -0.68599999
-0.0017030387 -0.12642802 -0.68599999
-0.00040774065 -0.12661232 -0.68699998
0.00089003996 -0.12661232 -0.68699998
0.0021878206 -0.12661232 -0.68699998
0.0034856012 -0.12661232 -0.68699998
0.0047833817 -0.12661232 -0.68699998
0.0060811625 -0.12661232 -0.68699998
0.0073896842 -0.12679662 -0.68800002
0.0086893542 -0.12679662 -0.68800002
0.0099890241 -0.12679662 -0.68800002
0.011288693 -0.12679662 -0.68800002
0.012588363 -0.12679662 -0.68800002
0.013928405 -0.12716521 -0.69
0.015231852 -0.12716521 -0.69
0.016559264 -0.12734951 -0.69099998
0.017864602 -0.12734951 -0.69099998
0.019225424 -0.12771811 -0.69300002
0.020534538 -0.12771811 -0.69300002
0.021843653 -0.12771811 -0.69300002
0.023152769 -0.12771811 -0.69300002
0.024461884 -0.12771811 -0.69300002
0.025770999 -0.12771811 -0.69300002
0.027080113 -0.12771811 -0.69300002
-0.066109873 -0.12695235 -0.68199998
-0.064631447 -0.12658006 -0.68000001
-0.063346893 -0.12658006 -0.68000001
-0.061971068 -0.12639391 -0.67900002
-0.060509641 -0.12602162 -0.67699999
-0.05914326 -0.12583548 -0.676
-0.05786626 -0.12583548 -0.676
-0.056589257 -0.12583548 -0.676
-0.055230435 -0.12564933 -0.67500001
-0.053955324 -0.12564933 -0.67500001
-0.052680213 -0.12564933 -0.67500001
-0.051252786 -0.12527703 -0.67299998
-0.049981453 -0.12527703 -0.67299998
-0.048710119 -0.12527703 -0.67299998
-0.047438785 -0.12527703 -0.67299998
-0.046304651 -0.12564933 -0.67500001
-0.04502954 -0.12564933 -0.67500001
-0.043754429 -0.12564933 -0.67500001
-0.042479314 -0.12564933 -0.67500001
-0.041265246 -0.12583548 -0.676
-0.039988246 -0.12583548 -0.676
-0.038711242 -0.12583548 -0.676
-0.037434243 -0.12583548 -0.676
-0.036210727 -0.12602162 -0.67699999
-0.034931839 -0.12602162 -0.67699999
-0.033652946 -0.12602162 -0.67699999
-0.032374058 -0.12602162 -0.67699999
-0.031095168 -0.12602162 -0.67699999
-0.029816277 -0.12602162 -0.67699999
-0.028537387 -0.12602162 -0.67699999
-0.027339026 -0.12639391 -0.67900002
-0.026056359 -0.12639391 -0.67900002
-0.024773689 -0.12639391 -0.67900002
-0.023525618 -0.12658006 -0.68000001
-0.02224106 -0.12658006 -0.68000001
-0.021018138 -0.12695235 -0.68199998
-0.019729804 -0.12695235 -0.68199998
-0.018441468 -0.12695235 -0.68199998
-0.017153133 -0.12695235 -0.68199998
-0.015888061 -0.12713851 -0.68300003
-0.014597836 -0.12713851 -0.68300003
-0.013307611 -0.12713851 -0.68300003
-0.012034982 -0.12732466 -0.68400002
-0.010742868 -0.12732466 -0.68400002
-0.0094507551 -0.12732466 -0.68400002
-0.0081586409 -0.12732466 -0.68400002
-0.0068866052 -0.12769695 -0.68599999
-0.0055907136 -0.12769695 -0.68599999
-0.004294822 -0.12769695 -0.68599999
-0.0029989304 -0.12769695 -0.68599999
-0.0017055213 -0.12788309 -0.68699998
-0.00040774065 -0.12788309 -0.68699998
0.00089003996 -0.12788309 -0.68699998
0.0021910053 -0.12806924 -0.68800002
0.003490675 -0.12806924 -0.68800002
0.0047903447 -0.12806924 -0.68800002
0.0060900147 -0.12806924 -0.68800002
0.0073896842 -0.12806924 -0.68800002
0.0086893542 -0.12806924 -0.68800002
0.010018061 -0.12844153 -0.69
0.011337917 -0.12862767 -0.69099998
0.012643253 -0.12862767 -0.69099998
0.01394859 -0.12862767 -0.69099998
0.015253928 -0.12862767 -0.69099998
0.016607193 -0.12899998 -0.69300002
0.017916309 -0.12899998 -0.69300002
0.019253166 -0.12918612 -0.69400001
0.020564169 -0.12918612 -0.69400001
0.021875173 -0.12918612 -0.69400001
0.023186177 -0.12918612 -0.69400001
0.024461884 -0.12899998 -0.69300002
0.025770999 -0.12899998 -0.69300002
0.02711919 -0.12918612 -0.69400001
-0.065916009 -0.12783788 -0.68000001
-0.064631447 -0.12783788 -0.68000001
-0.063253738 -0.12764989 -0.67900002
-0.061971068 -0.12764989 -0.67900002
-0.060509641 -0.12727389 -0.67699999
-0.059230749 -0.12727389 -0.67699999
-0.05786626 -0.12708589 -0.676
-0.056589257 -0.12708589 -0.676
-0.055312257 -0.12708589 -0.676
-0.054035258 -0.12708589 -0.676
-0.052758254 -0.12708589 -0.676
-0.051405098 -0.1268979 -0.67500001
-0.050129987 -0.1268979 -0.67500001
-0.048854876 -0.1268979 -0.67500001
-0.047579762 -0.1268979 -0.67500001
-0.046373248 -0.12708589 -0.676
-0.045096248 -0.12708589 -0.676
-0.043819249 -0.12708589 -0.676
-0.042542245 -0.12708589 -0.676
-0.041265246 -0.12708589 -0.676
-0.039988246 -0.12708589 -0.676
-0.038768508 -0.12727389 -0.67699999
-0.037489619 -0.12727389 -0.67699999
-0.036210727 -0.12727389 -0.67699999
-0.034931839 -0.12727389 -0.67699999
-0.033652946 -0.12727389 -0.67699999
-0.032469697 -0.12764989 -0.67900002
-0.031187031 -0.12764989 -0.67900002
-0.029904362 -0.12764989 -0.67900002
-0.028621694 -0.12764989 -0.67900002
-0.027379289 -0.12783788 -0.68000001
-0.026094731 -0.12783788 -0.68000001
-0.024883145 -0.12821387 -0.68199998
-0.02359481 -0.12821387 -0.68199998
-0.022306474 -0.12821387 -0.68199998
-0.021018138 -0.12821387 -0.68199998
-0.019758735 -0.12840188 -0.68300003
-0.01846851 -0.12840188 -0.68300003
-0.017203435 -0.12858987 -0.68400002
-0.015911322 -0.12858987 -0.68400002
-0.014619209 -0.12858987 -0.68400002
-0.013327096 -0.12858987 -0.68400002
-0.012070172 -0.12896587 -0.68599999
-0.01077428 -0.12896587 -0.68599999
-0.0094783884 -0.12896587 -0.68599999
-0.0081824968 -0.12896587 -0.68599999
-0.0068866052 -0.12896587 -0.68599999
-0.0055988631 -0.12915386 -0.68699998
-0.0043010823 -0.12915386 -0.68699998
-0.0030033018 -0.12915386 -0.68699998
-0.0017055213 -0.12915386 -0.68699998
-0.00040833419 -0.12934187 -0.68800002
0.00089133554 -0.12934187 -0.68800002
0.0021910053 -0.12934187 -0.68800002
0.003490675 -0.12934187 -0.68800002
0.0048042699 -0.12971786 -0.69
0.0061077178 -0.12971786 -0.69
0.0074111656 -0.12971786 -0.69
0.0087272432 -0.12990585 -0.69099998
0.01003258 -0.12990585 -0.69099998
0.011370733 -0.13028185 -0.69300002
0.012679849 -0.13028185 -0.69300002
0.013988963 -0.13028185 -0.69300002
0.015298079 -0.13028185 -0.69300002
0.016631158 -0.13046984 -0.69400001
0.017942162 -0.13046984 -0.69400001
0.019253166 -0.13046984 -0.69400001
0.020564169 -0.13046984 -0.69400001
0.021875173 -0.13046984 -0.69400001
0.023186177 -0.13046984 -0.69400001
0.024497181 -0.13046984 -0.69400001
0.025808185 -0.13046984 -0.69400001
0.02711919 -0.13046984 -0.69400001
-0.067200564 -0.1290957 -0.68000001
-0.065819077 -0.12890586 -0.67900002
-0.064536408 -0.12890586 -0.67900002
-0.063253738 -0.12890586 -0.67900002
-0.061971068 -0.12890586 -0.67900002
-0.060509641 -0.12852617 -0.67699999
-0.059230749 -0.12852617 -0.67699999
-0.05795186 -0.12852617 -0.67699999
-0.056589257 -0.12833633 -0.676
-0.055312257 -0.12833633 -0.676
-0.054035258 -0.12833633 -0.676
-0.052758254 -0.12833633 -0.676
-0.051481254 -0.12833633 -0.676
-0.050204255 -0.12833633 -0.676
-0.048927251 -0.12833633 -0.676
-0.047650252 -0.12833633 -0.676
-0.046373248 -0.12833633 -0.676
-0.045162957 -0.12852617 -0.67699999
-0.043884069 -0.12852617 -0.67699999
-0.042605177 -0.12852617 -0.67699999
-0.041326288 -0.12852617 -0.67699999
-0.0400474 -0.12852617 -0.67699999
-0.038768508 -0.12852617 -0.67699999
-0.037489619 -0.12852617 -0.67699999
-0.036317702 -0.12890586 -0.67900002
-0.035035037 -0.12890586 -0.67900002
-0.033752367 -0.12890586 -0.67900002
-0.032469697 -0.12890586 -0.67900002
-0.031232961 -0.1290957 -0.68000001
-0.029948404 -0.1290957 -0.68000001
-0.028663846 -0.1290957 -0.68000001
-0.027459815 -0.1294754 -0.68199998
-0.026171479 -0.1294754 -0.68199998
-0.024883145 -0.1294754 -0.68199998
-0.023629408 -0.12966526 -0.68300003
-0.022339184 -0.12966526 -0.68300003
-0.021048959 -0.12966526 -0.68300003
-0.019787664 -0.1298551 -0.68400002
-0.018495549 -0.1298551 -0.68400002
-0.017253738 -0.13023478 -0.68599999
-0.015957845 -0.13023478 -0.68599999
-0.014661955 -0.13023478 -0.68599999
-0.013366063 -0.13023478 -0.68599999
-0.012070172 -0.13023478 -0.68599999
-0.01077428 -0.13023478 -0.68599999
-0.0094922045 -0.13042463 -0.68699998
-0.0081944242 -0.13042463 -0.68699998
-0.0068966439 -0.13042463 -0.68699998
-0.0055988631 -0.13042463 -0.68699998
-0.0043073436 -0.13061449 -0.68800002
-0.0030076737 -0.13061449 -0.68800002
-0.0017080039 -0.13061449 -0.68800002
-0.00040952119 -0.13099417 -0.69
0.00089392666 -0.13099417 -0.69
0.002200559 -0.13118401 -0.69099998
0.0035058958 -0.13118401 -0.69099998
0.0048112329 -0.13118401 -0.69099998
0.0061165695 -0.13118401 -0.69099998
0.0074219066 -0.13118401 -0.69099998
0.0087525034 -0.13156372 -0.69300002
0.010061619 -0.13156372 -0.69300002
0.011370733 -0.13156372 -0.69300002
0.012698146 -0.13175356 -0.69400001
0.01400915 -0.13175356 -0.69400001
0.015320153 -0.13175356 -0.69400001
0.016631158 -0.13175356 -0.69400001
0.017968014 -0.1319434 -0.69499999
0.019280907 -0.1319434 -0.69499999
0.0205938 -0.1319434 -0.69499999
0.021906694 -0.1319434 -0.69499999
0.023219587 -0.1319434 -0.69499999
0.02453248 -0.1319434 -0.69499999
0.025845373 -0.1319434 -0.69499999
0.027236421 -0.1323231 -0.69700003
-0.067101739 -0.13016184 -0.67900002
-0.065819077 -0.13016184 -0.67900002
-0.064536408 -0.13016184 -0.67900002
-0.063253738 -0.13016184 -0.67900002
-0.061971068 -0.13016184 -0.67900002
-0.060509641 -0.12977844 -0.67699999
-0.059230749 -0.12977844 -0.67699999
-0.05795186 -0.12977844 -0.67699999
-0.056672968 -0.12977844 -0.67699999
-0.05539408 -0.12977844 -0.67699999
-0.054115187 -0.12977844 -0.67699999
-0.052836299 -0.12977844 -0.67699999
-0.051481254 -0.12958674 -0.676
-0.050204255 -0.12958674 -0.676
-0.048927251 -0.12958674 -0.676
-0.047650252 -0.12958674 -0.676
-0.046441849 -0.12977844 -0.67699999
-0.045162957 -0.12977844 -0.67699999
-0.043884069 -0.12977844 -0.67699999
-0.042605177 -0.12977844 -0.67699999
-0.041326288 -0.12977844 -0.67699999
-0.040165707 -0.13016184 -0.67900002
-0.038883042 -0.13016184 -0.67900002
-0.037600372 -0.13016184 -0.67900002
-0.03637119 -0.13035353 -0.68000001
-0.035086632 -0.13035353 -0.68000001
-0.033802077 -0.13035353 -0.68000001
-0.032517519 -0.13035353 -0.68000001
-0.031324822 -0.13073692 -0.68199998
-0.030036487 -0.13073692 -0.68199998
-0.028748151 -0.13073692 -0.68199998
-0.027459815 -0.13073692 -0.68199998
-0.026209857 -0.13092862 -0.68300003
-0.024919633 -0.13092862 -0.68300003
-0.023629408 -0.13092862 -0.68300003
-0.02237189 -0.13112032 -0.68400002
-0.021079777 -0.13112032 -0.68400002
-0.019787664 -0.13112032 -0.68400002
-0.018549629 -0.1315037 -0.68599999
-0.017278889 -0.1316954 -0.68699998
-0.015981108 -0.1316954 -0.68699998
-0.014683328 -0.1316954 -0.68699998
-0.013385546 -0.1316954 -0.68699998
-0.012087766 -0.1316954 -0.68699998
-0.010789986 -0.1316954 -0.68699998
-0.0094922045 -0.1316954 -0.68699998
-0.0082063526 -0.13188711 -0.68800002
-0.0069066831 -0.13188711 -0.68800002
-0.0056070131 -0.13188711 -0.68800002
-0.0043073436 -0.13188711 -0.68800002
-0.0030164169 -0.1322705 -0.69
-0.001712969 -0.1322705 -0.69
-0.00041011468 -0.13246219 -0.69099998
0.00089522218 -0.13246219 -0.69099998
0.0022069283 -0.13284558 -0.69300002
0.0035160433 -0.13284558 -0.69300002
0.0048251585 -0.13284558 -0.69300002
0.0061342735 -0.13284558 -0.69300002
0.0074433885 -0.13284558 -0.69300002
0.0087525034 -0.13284558 -0.69300002
0.010076137 -0.13303728 -0.69400001
0.011387141 -0.13303728 -0.69400001
0.012698146 -0.13303728 -0.69400001
0.01400915 -0.13303728 -0.69400001
0.015320153 -0.13303728 -0.69400001
0.016655121 -0.13322897 -0.69499999
0.017968014 -0.13322897 -0.69499999
0.019336393 -0.13361238 -0.69700003
0.020653063 -0.13361238 -0.69700003
0.021969736 -0.13361238 -0.69700003
0.023286406 -0.13361238 -0.69700003
0.024603078 -0.13361238 -0.69700003
0.025919748 -0.13361238 -0.69700003
-0.067200564 -0.13161136 -0.68000001
-0.065916009 -0.13161136 -0.68000001
-0.064536408 -0.13141781 -0.67900002
-0.063253738 -0.13141781 -0.67900002
-0.061971068 -0.13141781 -0.67900002
-0.060688399 -0.13141781 -0.67900002
-0.059230749 -0.13103071 -0.67699999
-0.05795186 -0.13103071 -0.67699999
-0.056672968 -0.13103071 -0.67699999
-0.05539408 -0.13103071 -0.67699999
-0.054115187 -0.13103071 -0.67699999
-0.052836299 -0.13103071 -0.67699999
-0.051557411 -0.13103071 -0.67699999
-0.050278518 -0.13103071 -0.67699999
-0.04899963 -0.13103071 -0.67699999
-0.047720738 -0.13103071 -0.67699999
-0.046579048 -0.13141781 -0.67900002
-0.045296382 -0.13141781 -0.67900002
-0.044013713 -0.13141781 -0.67900002
-0.042731047 -0.13141781 -0.67900002
-0.041448377 -0.13141781 -0.67900002
-0.040165707 -0.13141781 -0.67900002
-0.038940303 -0.13161136 -0.68000001
-0.037655748 -0.13161136 -0.68000001
-0.03637119 -0.13161136 -0.68000001
-0.035189826 -0.13199845 -0.68199998
-0.033901494 -0.13199845 -0.68199998
-0.032613158 -0.13199845 -0.68199998
-0.031324822 -0.13199845 -0.68199998
-0.030036487 -0.13199845 -0.68199998
-0.028790306 -0.132192 -0.68300003
-0.027500082 -0.132192 -0.68300003
-0.02624823 -0.13238554 -0.68400002
-0.024956116 -0.13238554 -0.68400002
-0.023664003 -0.13238554 -0.68400002
-0.022437304 -0.13277262 -0.68599999
-0.021141412 -0.13277262 -0.68599999
-0.019845521 -0.13277262 -0.68599999
-0.018576669 -0.13296618 -0.68699998
-0.017278889 -0.13296618 -0.68699998
-0.015981108 -0.13296618 -0.68699998
-0.014683328 -0.13296618 -0.68699998
-0.013385546 -0.13296618 -0.68699998
-0.012105362 -0.13315973 -0.68800002
-0.010805693 -0.13315973 -0.68800002
-0.0095060226 -0.13315973 -0.68800002
-0.0082063526 -0.13315973 -0.68800002
-0.0069066831 -0.13315973 -0.68800002
-0.0056233127 -0.13354681 -0.69
-0.0043198648 -0.13354681 -0.69
-0.0030207883 -0.13374035 -0.69099998
-0.0017154516 -0.13374035 -0.69099998
-0.00041130173 -0.13412745 -0.69300002
0.0008978133 -0.13412745 -0.69300002
0.0022069283 -0.13412745 -0.69300002
0.0035160433 -0.13412745 -0.69300002
0.0048251585 -0.13412745 -0.69300002
0.0061431252 -0.134321 -0.69400001
0.0074541289 -0.134321 -0.69400001
0.0087651331 -0.134321 -0.69400001
0.010076137 -0.134321 -0.69400001
0.011387141 -0.134321 -0.69400001
0.012716442 -0.13451454 -0.69499999
0.014029335 -0.13451454 -0.69499999
0.015342228 -0.13451454 -0.69499999
0.016703051 -0.13490164 -0.69700003
0.018019721 -0.13490164 -0.69700003
0.019336393 -0.13490164 -0.69700003
0.020682694 -0.13509518 -0.69800001
0.022001255 -0.13509518 -0.69800001
0.023319816 -0.13509518 -0.69800001
0.024638375 -0.13509518 -0.69800001
0.026068497 -0.13567582 -0.70099998
-0.067200564 -0.13286918 -0.68000001
-0.065916009 -0.13286918 -0.68000001
-0.064631447 -0.13286918 -0.68000001
-0.063346893 -0.13286918 -0.68000001
-0.061971068 -0.13267379 -0.67900002
-0.060688399 -0.13267379 -0.67900002
-0.059405733 -0.13267379 -0.67900002
-0.058123063 -0.13267379 -0.67900002
-0.056840397 -0.13267379 -0.67900002
-0.055557728 -0.13267379 -0.67900002
-0.054275058 -0.13267379 -0.67900002
-0.052992392 -0.13267379 -0.67900002
-0.051709723 -0.13267379 -0.67900002
-0.050427053 -0.13267379 -0.67900002
-0.049144387 -0.13267379 -0.67900002
-0.047932204 -0.13286918 -0.68000001
-0.046647649 -0.13286918 -0.68000001
-0.045363091 -0.13286918 -0.68000001
-0.044078533 -0.13286918 -0.68000001
-0.042793978 -0.13286918 -0.68000001
-0.04150942 -0.13286918 -0.68000001
-0.040224861 -0.13286918 -0.68000001
-0.039054833 -0.13325997 -0.68199998
-0.037766498 -0.13325997 -0.68199998
-0.036478162 -0.13325997 -0.68199998
-0.035189826 -0.13325997 -0.68199998
-0.033901494 -0.13325997 -0.68199998
-0.032613158 -0.13325997 -0.68199998
-0.031370755 -0.13345537 -0.68300003
-0.030080531 -0.13345537 -0.68300003
-0.028790306 -0.13345537 -0.68300003
-0.027540345 -0.13365076 -0.68400002
-0.02624823 -0.13365076 -0.68400002
-0.025029087 -0.13404155 -0.68599999
-0.023733195 -0.13404155 -0.68599999
-0.02247001 -0.13423695 -0.68699998
-0.021172231 -0.13423695 -0.68699998
-0.01987445 -0.13423695 -0.68699998
-0.018576669 -0.13423695 -0.68699998
-0.01730404 -0.13443235 -0.68800002
-0.016004371 -0.13443235 -0.68800002
-0.014704701 -0.13443235 -0.68800002
-0.013405032 -0.13443235 -0.68800002
-0.012105362 -0.13443235 -0.68800002
-0.010805693 -0.13443235 -0.68800002
-0.0095336558 -0.13482313 -0.69
-0.0082302084 -0.13482313 -0.69
-0.0069267601 -0.13482313 -0.69
-0.0056314622 -0.13501853 -0.69099998
-0.0043261251 -0.13501853 -0.69099998
-0.0030295318 -0.13540933 -0.69300002
-0.0017204167 -0.13540933 -0.69300002
-0.00041130173 -0.13540933 -0.69300002
0.0008978133 -0.13540933 -0.69300002
0.0022069283 -0.13540933 -0.69300002
0.0035160433 -0.13540933 -0.69300002
0.0048321211 -0.13560472 -0.69400001
0.0061431252 -0.13560472 -0.69400001
0.0074541289 -0.13560472 -0.69400001
0.0087651331 -0.13560472 -0.69400001
0.010090656 -0.13580011 -0.69499999
0.011403549 -0.13580011 -0.69499999
0.012716442 -0.13580011 -0.69499999
0.014069708 -0.13619091 -0.69700003
0.015386379 -0.13619091 -0.69700003
0.016703051 -0.13619091 -0.69700003
0.018045574 -0.13638631 -0.69800001
0.019364135 -0.13638631 -0.69800001
0.020682694 -0.13638631 -0.69800001
0.022001255 -0.13638631 -0.69800001
0.023386635 -0.13677709 -0.69999999
0.02474427 -0.13697249 -0.70099998
-0.067200564 -0.13412701 -0.68000001
-0.065916009 -0.13412701 -0.68000001
-0.064631447 -0.13412701 -0.68000001
-0.063346893 -0.13412701 -0.68000001
-0.062062334 -0.13412701 -0.68000001
-0.060688399 -0.13392976 -0.67900002
-0.059405733 -0.13392976 -0.67900002
-0.058123063 -0.13392976 -0.67900002
-0.056840397 -0.13392976 -0.67900002
-0.055557728 -0.13392976 -0.67900002
-0.054354992 -0.13412701 -0.68000001
-0.053070433 -0.13412701 -0.68000001
-0.051785879 -0.13412701 -0.68000001
-0.050501321 -0.13412701 -0.68000001
-0.049216762 -0.13412701 -0.68000001
-0.04807318 -0.13452148 -0.68199998
-0.046784844 -0.13452148 -0.68199998
-0.045496508 -0.13452148 -0.68199998
-0.044208176 -0.13452148 -0.68199998
-0.042919841 -0.13452148 -0.68199998
-0.041631505 -0.13452148 -0.68199998
-0.040343169 -0.13452148 -0.68199998
-0.039054833 -0.13452148 -0.68199998
-0.037766498 -0.13452148 -0.68199998
-0.036478162 -0.13452148 -0.68199998
-0.035241429 -0.13471875 -0.68300003
-0.033951204 -0.13471875 -0.68300003
-0.03266098 -0.13471875 -0.68300003
-0.031370755 -0.13471875 -0.68300003
-0.030124571 -0.13491599 -0.68400002
-0.028832458 -0.13491599 -0.68400002
-0.027620871 -0.13531047 -0.68599999
-0.026363352 -0.13550772 -0.68699998
-0.025065573 -0.13550772 -0.68699998
-0.023767792 -0.13550772 -0.68699998
-0.02247001 -0.13550772 -0.68699998
-0.02120305 -0.13570496 -0.68800002
-0.01990338 -0.13570496 -0.68800002
-0.01860371 -0.13570496 -0.68800002
-0.01730404 -0.13570496 -0.68800002
-0.016004371 -0.13570496 -0.68800002
-0.014704701 -0.13570496 -0.68800002
-0.013443999 -0.13609946 -0.69
-0.012140552 -0.13609946 -0.69
-0.010852809 -0.1362967 -0.69099998
-0.0095474729 -0.1362967 -0.69099998
-0.0082421359 -0.1362967 -0.69099998
-0.0069367988 -0.1362967 -0.69099998
-0.0056314622 -0.1362967 -0.69099998
-0.0043386468 -0.1366912 -0.69300002
-0.0030295318 -0.1366912 -0.69300002
-0.0017204167 -0.1366912 -0.69300002
-0.00041189522 -0.13688844 -0.69400001
0.00089910883 -0.13688844 -0.69400001
0.002210113 -0.13688844 -0.69400001
0.0035211169 -0.13688844 -0.69400001
0.0048390836 -0.13708568 -0.69499999
0.0061519765 -0.13708568 -0.69499999
0.0074648699 -0.13708568 -0.69499999
0.0087777628 -0.13708568 -0.69499999
0.010090656 -0.13708568 -0.69499999
0.011436366 -0.13748018 -0.69700003
0.012753037 -0.13748018 -0.69700003
0.014089894 -0.13767742 -0.69800001
0.015408454 -0.13767742 -0.69800001
0.016727015 -0.13767742 -0.69800001
0.018045574 -0.13767742 -0.69800001
0.019364135 -0.13767742 -0.69800001
0.020741958 -0.13807191 -0.69999999
0.022064297 -0.13807191 -0.69999999
-0.065916009 -0.13538483 -0.68000001
-0.064631447 -0.13538483 -0.68000001
-0.063346893 -0.13538483 -0.68000001
-0.062062334 -0.13538483 -0.68000001
-0.06077778 -0.13538483 -0.68000001
-0.059405733 -0.13518573 -0.67900002
-0.058208663 -0.13538483 -0.68000001
-0.056924108 -0.13538483 -0.68000001
-0.05563955 -0.13538483 -0.68000001
-0.054354992 -0.13538483 -0.68000001
-0.053226523 -0.13578302 -0.68199998
-0.051938187 -0.13578302 -0.68199998
-0.050649852 -0.13578302 -0.68199998
-0.049361516 -0.13578302 -0.68199998
-0.04807318 -0.13578302 -0.68199998
-0.046784844 -0.13578302 -0.68199998
-0.045496508 -0.13578302 -0.68199998
-0.044208176 -0.13578302 -0.68199998
-0.042982776 -0.13598211 -0.68300003
-0.041692551 -0.13598211 -0.68300003
-0.040402327 -0.13598211 -0.68300003
-0.039112102 -0.13598211 -0.68300003
-0.037821878 -0.13598211 -0.68300003
-0.036531653 -0.13598211 -0.68300003
-0.035293024 -0.13618121 -0.68400002
-0.034000911 -0.13618121 -0.68400002
-0.032708798 -0.13618121 -0.68400002
-0.031508546 -0.13657939 -0.68599999
-0.030212654 -0.13657939 -0.68599999
-0.028958915 -0.13677849 -0.68699998
-0.027661134 -0.13677849 -0.68699998
-0.026363352 -0.13677849 -0.68699998
-0.025065573 -0.13677849 -0.68699998
-0.02380239 -0.1369776 -0.68800002
-0.02250272 -0.1369776 -0.68800002
-0.02120305 -0.1369776 -0.68800002
-0.01990338 -0.1369776 -0.68800002
-0.01865779 -0.13737577 -0.69
-0.017354343 -0.13737577 -0.69
-0.016050896 -0.13737577 -0.69
-0.014747447 -0.13737577 -0.69
-0.013463483 -0.13757487 -0.69099998
-0.012158146 -0.13757487 -0.69099998
-0.010852809 -0.13757487 -0.69099998
-0.0095751071 -0.13797307 -0.69300002
-0.0082659917 -0.13797307 -0.69300002
-0.0069568767 -0.13797307 -0.69300002
-0.0056477617 -0.13797307 -0.69300002
-0.0043386468 -0.13797307 -0.69300002
-0.0030339034 -0.13817216 -0.69400001
-0.0017228993 -0.13817216 -0.69400001
-0.00041189522 -0.13817216 -0.69400001
0.00090040435 -0.13837126 -0.69499999
0.0022132974 -0.13837126 -0.69499999
0.0035261905 -0.13837126 -0.69499999
0.0048530092 -0.13876945 -0.69700003
0.0061696805 -0.13876945 -0.69700003
0.0074863518 -0.13876945 -0.69700003
0.008803023 -0.13876945 -0.69700003
0.010119694 -0.13876945 -0.69700003
0.011452774 -0.13896854 -0.69800001
0.012771334 -0.13896854 -0.69800001
0.014089894 -0.13896854 -0.69800001
0.015408454 -0.13896854 -0.69800001
-0.066109873 -0.13704453 -0.68199998
-0.064821541 -0.13704453 -0.68199998
-0.063533202 -0.13704453 -0.68199998
-0.06224487 -0.13704453 -0.68199998
-0.06077778 -0.13664265 -0.68000001
-0.059493221 -0.13664265 -0.68000001
-0.058379862 -0.13704453 -0.68199998
-0.057091527 -0.13704453 -0.68199998
-0.055803195 -0.13704453 -0.68199998
-0.054514859 -0.13704453 -0.68199998
-0.053226523 -0.13704453 -0.68199998
-0.051938187 -0.13704453 -0.68199998
-0.050649852 -0.13704453 -0.68199998
-0.049433898 -0.13724549 -0.68300003
-0.048143674 -0.13724549 -0.68300003
-0.046853449 -0.13724549 -0.68300003
-0.045563225 -0.13724549 -0.68300003
-0.044273 -0.13724549 -0.68300003
-0.042982776 -0.13724549 -0.68300003
-0.041692551 -0.13724549 -0.68300003
-0.040461481 -0.13744643 -0.68400002
-0.039169367 -0.13744643 -0.68400002
-0.03787725 -0.13744643 -0.68400002
-0.036585137 -0.13744643 -0.68400002
-0.035396218 -0.13784832 -0.68599999
-0.034100328 -0.13784832 -0.68599999
-0.032804437 -0.13784832 -0.68599999
-0.031554475 -0.13804926 -0.68699998
-0.030256694 -0.13804926 -0.68699998
-0.028958915 -0.13804926 -0.68699998
-0.027701398 -0.13825022 -0.68800002
-0.026401728 -0.13825022 -0.68800002
-0.02510206 -0.13825022 -0.68800002
-0.02380239 -0.13825022 -0.68800002
-0.022568135 -0.1386521 -0.69
-0.021264687 -0.1386521 -0.69
