# .PCD v0.7 - Point Cloud Data file format
VERSION 0.7
FIELDS x y z
SIZE 4 4 4
TYPE F F F
COUNT 1 1 1
WIDTH 1344
HEIGHT 1
VIEWPOINT 0 0 0 1 0 0 0
POINTS 1344
DATA ascii
0.053784061 -0.10313443 -0.68300003
0.055074286 -0.10313443 -0.68300003
0.05636451 -0.10313443 -0.68300003
0.057654735 -0.10313443 -0.68300003
0.058944959 -0.10313443 -0.68300003
-0.0081467135 -0.1043978 -0.68300003
-0.0068163341 -0.10378639 -0.67900002
-0.0055173659 -0.10348068 -0.67699999
-0.0042322152 -0.10332783 -0.676
-0.0029420992 -0.10286927 -0.67299998
-0.0016682828 -0.10271642 -0.67199999
-0.00039824453 -0.10256357 -0.671
0.00086931128 -0.10256357 -0.671
0.002136867 -0.10256357 -0.671
0.0034044229 -0.10256357 -0.671
0.0046719788 -0.10256357 -0.671
0.0059395344 -0.10256357 -0.671
0.00720709 -0.10256357 -0.671
0.0084746461 -0.10256357 -0.671
0.0097422022 -0.10256357 -0.671
0.011009757 -0.10256357 -0.671
0.012277314 -0.10256357 -0.671
0.013544869 -0.10256357 -0.671
0.0148345 -0.10271642 -0.67199999
0.016103944 -0.10271642 -0.67199999
0.017373389 -0.10271642 -0.67199999
0.018642833 -0.10271642 -0.67199999
0.019941909 -0.10286927 -0.67299998
0.021213245 -0.10286927 -0.67299998
0.022484578 -0.10286927 -0.67299998
0.02382651 -0.10317498 -0.67500001
0.025101623 -0.10317498 -0.67500001
0.02641581 -0.10332783 -0.676
0.027692812 -0.10332783 -0.676
0.028969811 -0.10332783 -0.676
0.030246813 -0.10332783 -0.676
0.031570446 -0.10348068 -0.67699999
0.032849338 -0.10348068 -0.67699999
0.034128226 -0.10348068 -0.67699999
0.035407118 -0.10348068 -0.67699999
0.036794387 -0.10378639 -0.67900002
0.038077056 -0.10378639 -0.67900002
0.039359722 -0.10378639 -0.67900002
0.040642392 -0.10378639 -0.67900002
0.041986804 -0.10393924 -0.68000001
0.043271363 -0.10393924 -0.68000001
0.044686966 -0.10424494 -0.68199998
0.045975298 -0.10424494 -0.68199998
0.047263633 -0.10424494 -0.68199998
0.048623163 -0.1043978 -0.68300003
0.049913388 -0.1043978 -0.68300003
0.051203612 -0.1043978 -0.68300003
0.052493837 -0.1043978 -0.68300003
0.053784061 -0.1043978 -0.68300003
0.055074286 -0.1043978 -0.68300003
0.05636451 -0.1043978 -0.68300003
0.057654735 -0.1043978 -0.68300003
0.059031263 -0.10455065 -0.68400002
-0.0081347851 -0.10550646 -0.68199998
-0.0067962562 -0.10473296 -0.67699999
-0.0055092163 -0.10457826 -0.676
-0.0042134332 -0.10411415 -0.67299998
-0.0029377276 -0.10395945 -0.67199999
-0.0016682828 -0.10395945 -0.67199999
-0.00039824453 -0.10380475 -0.671
0.00086931128 -0.10380475 -0.671
0.002136867 -0.10380475 -0.671
0.0034044229 -0.10380475 -0.671
0.0046719788 -0.10380475 -0.671
0.0059395344 -0.10380475 -0.671
0.00720709 -0.10380475 -0.671
0.0084746461 -0.10380475 -0.671
0.0097567206 -0.10395945 -0.67199999
0.011026165 -0.10395945 -0.67199999
0.01229561 -0.10395945 -0.67199999
0.013565055 -0.10395945 -0.67199999
0.0148345 -0.10395945 -0.67199999
0.016103944 -0.10395945 -0.67199999
0.017399242 -0.10411415 -0.67299998
0.018670576 -0.10411415 -0.67299998
0.020001173 -0.10442356 -0.67500001
0.021276286 -0.10442356 -0.67500001
0.022551399 -0.10442356 -0.67500001
0.023861809 -0.10457826 -0.676
0.025138808 -0.10457826 -0.676
0.02641581 -0.10457826 -0.676
0.027692812 -0.10457826 -0.676
0.029012667 -0.10473296 -0.67699999
0.030291557 -0.10473296 -0.67699999
0.031570446 -0.10473296 -0.67699999
0.032946382 -0.10504237 -0.67900002
0.034229051 -0.10504237 -0.67900002
0.035511717 -0.10504237 -0.67900002
0.036848575 -0.10519706 -0.68000001
0.038133133 -0.10519706 -0.68000001
0.039417692 -0.10519706 -0.68000001
0.040702246 -0.10519706 -0.68000001
0.042110294 -0.10550646 -0.68199998
0.04339863 -0.10550646 -0.68199998
0.044686966 -0.10550646 -0.68199998
0.046042714 -0.10566118 -0.68300003
0.047332939 -0.10566118 -0.68300003
0.048623163 -0.10566118 -0.68300003
0.049913388 -0.10566118 -0.68300003
0.05127858 -0.10581587 -0.68400002
0.052570693 -0.10581587 -0.68400002
0.053862806 -0.10581587 -0.68400002
0.05515492 -0.10581587 -0.68400002
0.056447037 -0.10581587 -0.68400002
0.05773915 -0.10581587 -0.68400002
-0.0080990018 -0.10629834 -0.67900002
-0.0067862174 -0.10582868 -0.676
-0.0055010668 -0.10567214 -0.67500001
-0.0042134332 -0.10535903 -0.67299998
-0.0029377276 -0.10520247 -0.67199999
-0.0016682828 -0.10520247 -0.67199999
-0.00039883802 -0.10520247 -0.67199999
0.0008706068 -0.10520247 -0.67199999
0.0021400517 -0.10520247 -0.67199999
0.0034094965 -0.10520247 -0.67199999
0.0046789413 -0.10520247 -0.67199999
0.0059483862 -0.10520247 -0.67199999
0.007217831 -0.10520247 -0.67199999
0.0084872758 -0.10520247 -0.67199999
0.0097567206 -0.10520247 -0.67199999
0.011026165 -0.10520247 -0.67199999
0.01229561 -0.10520247 -0.67199999
0.013565055 -0.10520247 -0.67199999
0.014856575 -0.10535903 -0.67299998
0.016127909 -0.10535903 -0.67299998
0.017399242 -0.10535903 -0.67299998
0.018726062 -0.10567214 -0.67500001
0.020001173 -0.10567214 -0.67500001
0.021307806 -0.10582868 -0.676
0.022584807 -0.10582868 -0.676
0.023861809 -0.10582868 -0.676
0.025175996 -0.10598523 -0.67699999
0.026454886 -0.10598523 -0.67699999
0.027733777 -0.10598523 -0.67699999
0.029012667 -0.10598523 -0.67699999
0.030291557 -0.10598523 -0.67699999
0.031663712 -0.10629834 -0.67900002
0.032946382 -0.10629834 -0.67900002
0.034279462 -0.10645489 -0.68000001
0.035564017 -0.10645489 -0.68000001
0.036848575 -0.10645489 -0.68000001
0.038245287 -0.10676799 -0.68199998
0.039533623 -0.10676799 -0.68199998
0.040821958 -0.10676799 -0.68199998
0.042110294 -0.10676799 -0.68199998
0.043462265 -0.10692455 -0.68300003
0.04475249 -0.10692455 -0.68300003
0.046042714 -0.10692455 -0.68300003
0.047332939 -0.10692455 -0.68300003
0.048694354 -0.10708109 -0.68400002
0.049986467 -0.10708109 -0.68400002
0.051428515 -0.1073942 -0.68599999
0.052724406 -0.1073942 -0.68599999
0.054020301 -0.1073942 -0.68599999
0.055316191 -0.1073942 -0.68599999
0.056612082 -0.1073942 -0.68599999
0.057907972 -0.1073942 -0.68599999
0.059376474 -0.1077073 -0.68800002
-0.008075146 -0.1072375 -0.67699999
-0.0067862174 -0.1070791 -0.676
-0.0055010668 -0.1069207 -0.67500001
-0.0042134332 -0.1066039 -0.67299998
-0.0029420992 -0.1066039 -0.67299998
-0.0016682828 -0.1064455 -0.67199999
-0.00039883802 -0.1064455 -0.67199999
0.0008706068 -0.1064455 -0.67199999
0.0021400517 -0.1064455 -0.67199999
0.0034145701 -0.1066039 -0.67299998
0.0046859039 -0.1066039 -0.67299998
0.0059483862 -0.1064455 -0.67199999
0.007217831 -0.1064455 -0.67199999
0.0084872758 -0.1064455 -0.67199999
0.009771239 -0.1066039 -0.67299998
0.011042573 -0.1066039 -0.67299998
0.012313907 -0.1066039 -0.67299998
0.013585241 -0.1066039 -0.67299998
0.014900725 -0.1069207 -0.67500001
0.016175838 -0.1069207 -0.67500001
0.017450949 -0.1069207 -0.67500001
0.018753804 -0.1070791 -0.676
0.020030804 -0.1070791 -0.676
0.021307806 -0.1070791 -0.676
0.022584807 -0.1070791 -0.676
0.023897106 -0.1072375 -0.67699999
0.025175996 -0.1072375 -0.67699999
0.026533041 -0.10755432 -0.67900002
0.027815709 -0.10755432 -0.67900002
0.029098377 -0.10755432 -0.67900002
0.030381046 -0.10755432 -0.67900002
0.031710345 -0.10771271 -0.68000001
0.032994904 -0.10771271 -0.68000001
0.034279462 -0.10771271 -0.68000001
0.035668615 -0.10802951 -0.68199998
0.036956951 -0.10802951 -0.68199998
0.038245287 -0.10802951 -0.68199998
0.039533623 -0.10802951 -0.68199998
0.040821958 -0.10802951 -0.68199998
0.042172041 -0.10818792 -0.68300003
0.043462265 -0.10818792 -0.68300003
0.044818014 -0.10834632 -0.68400002
0.046110127 -0.10834632 -0.68400002
0.04754084 -0.10866311 -0.68599999
0.048836734 -0.10866311 -0.68599999
0.050205704 -0.10882151 -0.68699998
0.051503483 -0.10882151 -0.68699998
0.052801266 -0.10882151 -0.68699998
0.054099046 -0.10882151 -0.68699998
0.055396825 -0.10882151 -0.68699998
0.056694604 -0.10882151 -0.68699998
0.058076806 -0.10897993 -0.68800002
0.059549078 -0.10929672 -0.69
-0.0080632186 -0.10832953 -0.676
-0.0067862174 -0.10832953 -0.676
-0.0055010668 -0.10816928 -0.67500001
-0.0042259544 -0.10816928 -0.67500001
-0.0029420992 -0.10784878 -0.67299998
-0.0016707653 -0.10784878 -0.67299998
-0.00039943153 -0.10784878 -0.67299998
0.00087190233 -0.10784878 -0.67299998
0.0021432361 -0.10784878 -0.67299998
0.0034145701 -0.10784878 -0.67299998
0.0046859039 -0.10784878 -0.67299998
0.0059572379 -0.10784878 -0.67299998
0.0072285715 -0.10784878 -0.67299998
0.0084999055 -0.10784878 -0.67299998
0.009771239 -0.10784878 -0.67299998
0.011042573 -0.10784878 -0.67299998
0.012350501 -0.10816928 -0.67500001
0.013625613 -0.10816928 -0.67500001
0.014900725 -0.10816928 -0.67500001
0.016199801 -0.10832953 -0.676
0.017476803 -0.10832953 -0.676
0.018753804 -0.10832953 -0.676
0.020030804 -0.10832953 -0.676
0.021339325 -0.10848978 -0.67699999
0.022618216 -0.10848978 -0.67699999
0.023967704 -0.10881028 -0.67900002
0.025250373 -0.10881028 -0.67900002
0.026572118 -0.10897054 -0.68000001
0.027856674 -0.10897054 -0.68000001
0.029141232 -0.10897054 -0.68000001
0.030425789 -0.10897054 -0.68000001
0.031803612 -0.10929103 -0.68199998
0.033091947 -0.10929103 -0.68199998
0.034380279 -0.10929103 -0.68199998
0.035668615 -0.10929103 -0.68199998
0.036956951 -0.10929103 -0.68199998
0.038301367 -0.10945129 -0.68300003
0.039591592 -0.10945129 -0.68300003
0.040941674 -0.10961154 -0.68400002
0.042233787 -0.10961154 -0.68400002
0.043653168 -0.10993204 -0.68599999
0.044949058 -0.10993204 -0.68599999
0.046312362 -0.11009228 -0.68699998
0.047610141 -0.11009228 -0.68699998
0.048907924 -0.11009228 -0.68699998
0.050205704 -0.11009228 -0.68699998
0.051578455 -0.11025254 -0.68800002
0.052878127 -0.11025254 -0.68800002
0.054177795 -0.11025254 -0.68800002
0.055477466 -0.11025254 -0.68800002
0.056777135 -0.11025254 -0.68800002
0.058076806 -0.11025254 -0.68800002
0.059635378 -0.11073329 -0.69099998
0.061205294 -0.11121405 -0.69400001
-0.018738912 -0.11233567 -0.69300002
-0.0080632186 -0.10957996 -0.676
-0.0067862174 -0.10957996 -0.676
-0.0055010668 -0.10941786 -0.67500001
-0.0042259544 -0.10941786 -0.67500001
-0.0029508425 -0.10941786 -0.67500001
-0.0016707653 -0.10909365 -0.67299998
-0.00039943153 -0.10909365 -0.67299998
0.00087190233 -0.10909365 -0.67299998
0.0021432361 -0.10909365 -0.67299998
0.0034145701 -0.10909365 -0.67299998
0.0046859039 -0.10909365 -0.67299998
0.0059572379 -0.10909365 -0.67299998
0.0072285715 -0.10909365 -0.67299998
0.0084999055 -0.10909365 -0.67299998
0.0098002777 -0.10941786 -0.67500001
0.01107539 -0.10941786 -0.67500001
0.012350501 -0.10941786 -0.67500001
0.0136458 -0.10957996 -0.676
0.0149228 -0.10957996 -0.676
0.016199801 -0.10957996 -0.676
0.017502656 -0.10974205 -0.67699999
0.018781547 -0.10974205 -0.67699999
0.020060435 -0.10974205 -0.67699999
0.021402368 -0.11006626 -0.67900002
0.022685036 -0.11006626 -0.67900002
0.024003003 -0.11022836 -0.68000001
0.025287559 -0.11022836 -0.68000001
0.026572118 -0.11022836 -0.68000001
0.027938604 -0.11055256 -0.68199998
0.02922694 -0.11055256 -0.68199998
0.030515276 -0.11055256 -0.68199998
0.031803612 -0.11055256 -0.68199998
0.033091947 -0.11055256 -0.68199998
0.034430694 -0.11071467 -0.68300003
0.035720918 -0.11071467 -0.68300003
0.037011143 -0.11071467 -0.68300003
0.038357444 -0.11087676 -0.68400002
0.039765492 -0.11120096 -0.68599999
0.041061383 -0.11120096 -0.68599999
0.042357273 -0.11120096 -0.68599999
0.043716799 -0.11136306 -0.68699998
0.045014583 -0.11136306 -0.68699998
0.046312362 -0.11136306 -0.68699998
0.047610141 -0.11136306 -0.68699998
0.048979115 -0.11152516 -0.68800002
0.050278787 -0.11152516 -0.68800002
0.051578455 -0.11152516 -0.68800002
0.052878127 -0.11152516 -0.68800002
0.054177795 -0.11152516 -0.68800002
0.055477466 -0.11152516 -0.68800002
0.056942184 -0.11184936 -0.69
0.058330044 -0.11201146 -0.69099998
0.05980799 -0.11233567 -0.69300002
0.061205294 -0.11249777 -0.69400001
0.062516302 -0.11249777 -0.69400001
0.063919276 -0.11265986 -0.69499999
0.06541989 -0.11298407 -0.69700003
-0.020048028 -0.11361754 -0.69300002
-0.018738912 -0.11361754 -0.69300002
-0.017429797 -0.11361754 -0.69300002
-0.0093402192 -0.11083038 -0.676
-0.0080632186 -0.11083038 -0.676
-0.0067761787 -0.11066643 -0.67500001
-0.0055010668 -0.11066643 -0.67500001
-0.0042259544 -0.11066643 -0.67500001
-0.0029508425 -0.11066643 -0.67500001
-0.0016757306 -0.11066643 -0.67500001
-0.00040061856 -0.11066643 -0.67500001
0.00087449345 -0.11066643 -0.67500001
0.0021496054 -0.11066643 -0.67500001
0.0034247176 -0.11066643 -0.67500001
0.0046998295 -0.11066643 -0.67500001
0.0059749414 -0.11066643 -0.67500001
0.0072500533 -0.11066643 -0.67500001
0.0085251657 -0.11066643 -0.67500001
0.009814796 -0.11083038 -0.676
0.011091798 -0.11083038 -0.676
0.012368798 -0.11083038 -0.676
0.0136458 -0.11083038 -0.676
0.014944876 -0.11099432 -0.67699999
0.016223766 -0.11099432 -0.67699999
0.017554363 -0.11132223 -0.67900002
0.018837031 -0.11132223 -0.67900002
0.020119699 -0.11132223 -0.67900002
0.021433888 -0.11148618 -0.68000001
0.022718444 -0.11148618 -0.68000001
0.024073599 -0.11181408 -0.68199998
0.025361935 -0.11181408 -0.68199998
0.026650269 -0.11181408 -0.68199998
0.027938604 -0.11181408 -0.68199998
0.02922694 -0.11181408 -0.68199998
0.03056002 -0.11197804 -0.68300003
0.031850245 -0.11197804 -0.68300003
0.033140469 -0.11197804 -0.68300003
0.034430694 -0.11197804 -0.68300003
0.035773218 -0.11214198 -0.68400002
0.037173707 -0.11246988 -0.68599999
0.038469601 -0.11246988 -0.68599999
0.039823458 -0.11263383 -0.68699998
0.041121241 -0.11263383 -0.68699998
0.04241902 -0.11263383 -0.68699998
0.043780439 -0.11279779 -0.68800002
0.045080107 -0.11279779 -0.68800002
0.046379779 -0.11279779 -0.68800002
0.047679447 -0.11279779 -0.68800002
0.048979115 -0.11279779 -0.68800002
0.050424945 -0.11312568 -0.69
0.05172839 -0.11312568 -0.69
0.053031839 -0.11312568 -0.69
0.054335289 -0.11312568 -0.69
0.055719368 -0.11328963 -0.69099998
0.057024706 -0.11328963 -0.69099998
0.058498874 -0.11361754 -0.69300002
0.05980799 -0.11361754 -0.69300002
0.061205294 -0.11378148 -0.69400001
0.062516302 -0.11378148 -0.69400001
0.063919276 -0.11394543 -0.69499999
0.06541989 -0.11427334 -0.69700003
0.066832304 -0.11443729 -0.69800001
0.068346135 -0.11476518 -0.69999999
-0.020048028 -0.1148994 -0.69300002
-0.018684831 -0.1145678 -0.69099998
-0.017379494 -0.1145678 -0.69099998
-0.016074156 -0.1145678 -0.69099998
-0.010617221 -0.11208081 -0.676
-0.009326403 -0.11191501 -0.67500001
-0.0080632186 -0.11208081 -0.676
-0.0067862174 -0.11208081 -0.676
-0.0055010668 -0.11191501 -0.67500001
-0.0042259544 -0.11191501 -0.67500001
-0.0029508425 -0.11191501 -0.67500001
-0.0016757306 -0.11191501 -0.67500001
-0.00040061856 -0.11191501 -0.67500001
0.00087449345 -0.11191501 -0.67500001
0.0021527901 -0.11208081 -0.676
0.0034297912 -0.11208081 -0.676
0.0047067921 -0.11208081 -0.676
0.0059837932 -0.11208081 -0.676
0.0072607943 -0.11208081 -0.676
0.0085377954 -0.11208081 -0.676
0.009814796 -0.11208081 -0.676
0.011091798 -0.11208081 -0.676
0.012387095 -0.1122466 -0.67699999
0.013665985 -0.1122466 -0.67699999
0.014989027 -0.11257821 -0.67900002
0.016271695 -0.11257821 -0.67900002
0.017580217 -0.112744 -0.68000001
0.018864773 -0.112744 -0.68000001
0.02014933 -0.112744 -0.68000001
0.021496927 -0.1130756 -0.68199998
0.022785263 -0.1130756 -0.68199998
0.024073599 -0.1130756 -0.68199998
0.025361935 -0.1130756 -0.68199998
0.026650269 -0.1130756 -0.68199998
0.027979571 -0.11324141 -0.68300003
0.029269796 -0.11324141 -0.68300003
0.03056002 -0.11324141 -0.68300003
0.031850245 -0.11324141 -0.68300003
0.033188991 -0.11340721 -0.68400002
0.034581926 -0.11373881 -0.68599999
0.035877816 -0.11373881 -0.68599999
0.037227899 -0.1139046 -0.68699998
0.038525678 -0.1139046 -0.68699998
0.039823458 -0.1139046 -0.68699998
0.041181099 -0.11407041 -0.68800002
0.042480767 -0.11407041 -0.68800002
0.043780439 -0.11407041 -0.68800002
0.045080107 -0.11407041 -0.68800002
0.046379779 -0.11407041 -0.68800002
0.04781805 -0.114402 -0.69
0.049121495 -0.114402 -0.69
0.050498024 -0.1145678 -0.69099998
0.051803358 -0.1145678 -0.69099998
0.053108696 -0.1145678 -0.69099998
0.054414034 -0.1145678 -0.69099998
0.055880643 -0.1148994 -0.69300002
0.057189759 -0.1148994 -0.69300002
0.058583286 -0.1150652 -0.69400001
0.05989429 -0.1150652 -0.69400001
0.061205294 -0.1150652 -0.69400001
0.062606379 -0.115231 -0.69499999
0.064103216 -0.11556261 -0.69700003
0.065513745 -0.11572841 -0.69800001
0.066832304 -0.11572841 -0.69800001
0.068150863 -0.11572841 -0.69800001
0.069668479 -0.11606 -0.69999999
-0.020048028 -0.11618128 -0.69300002
-0.018684831 -0.11584597 -0.69099998
-0.017379494 -0.11584597 -0.69099998
-0.016074156 -0.11584597 -0.69099998
-0.010617221 -0.11333123 -0.676
-0.0093402192 -0.11333123 -0.676
-0.0080632186 -0.11333123 -0.676
-0.0067862174 -0.11333123 -0.676
-0.0055092163 -0.11333123 -0.676
-0.0042322152 -0.11333123 -0.676
-0.0029552141 -0.11333123 -0.676
-0.0016782131 -0.11333123 -0.676
-0.00040121208 -0.11333123 -0.676
0.00087578897 -0.11333123 -0.676
0.0021527901 -0.11333123 -0.676
0.0034297912 -0.11333123 -0.676
0.0047067921 -0.11333123 -0.676
0.0059837932 -0.11333123 -0.676
0.0072715348 -0.11349887 -0.67699999
0.0085504251 -0.11349887 -0.67699999
0.0098293154 -0.11349887 -0.67699999
0.011141022 -0.11383418 -0.67900002
0.01242369 -0.11383418 -0.67900002
0.013726544 -0.11400183 -0.68000001
0.015011101 -0.11400183 -0.68000001
0.016295658 -0.11400183 -0.68000001
0.017631922 -0.11433712 -0.68199998
0.018920258 -0.11433712 -0.68199998
0.020208592 -0.11433712 -0.68199998
0.021496927 -0.11433712 -0.68199998
0.022785263 -0.11433712 -0.68199998
0.024108898 -0.11450478 -0.68300003
0.025399122 -0.11450478 -0.68300003
0.026689347 -0.11450478 -0.68300003
0.027979571 -0.11450478 -0.68300003
0.029312652 -0.11467243 -0.68400002
0.030604765 -0.11467243 -0.68400002
0.031990141 -0.11500772 -0.68599999
0.033286035 -0.11500772 -0.68599999
0.034632336 -0.11517537 -0.68699998
0.035930116 -0.11517537 -0.68699998
0.037227899 -0.11517537 -0.68699998
0.038581759 -0.11534303 -0.68800002
0.039881427 -0.11534303 -0.68800002
0.041181099 -0.11534303 -0.68800002
0.042480767 -0.11534303 -0.68800002
0.043780439 -0.11534303 -0.68800002
0.045211151 -0.11567833 -0.69
0.046514601 -0.11567833 -0.69
0.047887348 -0.11584597 -0.69099998
0.049192686 -0.11584597 -0.69099998
0.050644185 -0.11618128 -0.69300002
0.051953301 -0.11618128 -0.69300002
0.053262413 -0.11618128 -0.69300002
0.054571528 -0.11618128 -0.69300002
0.055961277 -0.11634892 -0.69400001
0.057272281 -0.11634892 -0.69400001
0.058583286 -0.11634892 -0.69400001
0.059980594 -0.11651658 -0.69499999
0.061293487 -0.11651658 -0.69499999
0.062786542 -0.11685188 -0.69700003
0.064195186 -0.11701953 -0.69800001
0.065513745 -0.11701953 -0.69800001
0.066832304 -0.11701953 -0.69800001
0.068150863 -0.11701953 -0.69800001
0.069668479 -0.11735482 -0.69999999
0.070990816 -0.11735482 -0.69999999
-0.018684831 -0.11712414 -0.69099998
-0.01730404 -0.11661565 -0.68800002
-0.016050896 -0.11695465 -0.69
-0.011911816 -0.11475115 -0.67699999
-0.010617221 -0.11458165 -0.676
-0.0093402192 -0.11458165 -0.676
-0.0080632186 -0.11458165 -0.676
-0.0067862174 -0.11458165 -0.676
-0.0055092163 -0.11458165 -0.676
-0.0042322152 -0.11458165 -0.676
-0.0029552141 -0.11458165 -0.676
-0.0016782131 -0.11458165 -0.676
-0.00040121208 -0.11458165 -0.676
0.00087578897 -0.11458165 -0.676
0.0021559745 -0.11475115 -0.67699999
0.0034348646 -0.11475115 -0.67699999
0.0047137546 -0.11475115 -0.67699999
0.0059926449 -0.11475115 -0.67699999
0.0072715348 -0.11475115 -0.67699999
0.0085756853 -0.11509015 -0.67900002
0.0098583531 -0.11509015 -0.67900002
0.01115743 -0.11525965 -0.68000001
0.012478581 -0.11559865 -0.68199998
0.013766916 -0.11559865 -0.68199998
0.015055251 -0.11559865 -0.68199998
0.016343586 -0.11559865 -0.68199998
0.017657775 -0.11576816 -0.68300003
0.018948 -0.11576816 -0.68300003
0.020238224 -0.11576816 -0.68300003
0.021528449 -0.11576816 -0.68300003
0.022818673 -0.11576816 -0.68300003
0.024108898 -0.11576816 -0.68300003
0.025399122 -0.11576816 -0.68300003
0.026728423 -0.11593765 -0.68400002
0.028020537 -0.11593765 -0.68400002
0.029398359 -0.11627664 -0.68599999
0.03069425 -0.11627664 -0.68599999
0.032036774 -0.11644614 -0.68699998
0.033334557 -0.11644614 -0.68699998
0.034632336 -0.11644614 -0.68699998
0.035982419 -0.11661565 -0.68800002
0.037282087 -0.11661565 -0.68800002
0.038581759 -0.11661565 -0.68800002
0.039881427 -0.11661565 -0.68800002
0.041300807 -0.11695465 -0.69
0.042604256 -0.11695465 -0.69
0.043907706 -0.11695465 -0.69
0.045276675 -0.11712414 -0.69099998
0.046582013 -0.11712414 -0.69099998
0.048025955 -0.11746315 -0.69300002
0.04933507 -0.11746315 -0.69300002
0.050644185 -0.11746315 -0.69300002
0.051953301 -0.11746315 -0.69300002
0.053339269 -0.11763264 -0.69400001
0.054650273 -0.11763264 -0.69400001
0.055961277 -0.11763264 -0.69400001
0.057354808 -0.11780214 -0.69499999
0.058667701 -0.11780214 -0.69499999
0.060153201 -0.11814114 -0.69700003
0.061469872 -0.11814114 -0.69700003
0.062876627 -0.11831065 -0.69800001
0.064195186 -0.11831065 -0.69800001
0.065513745 -0.11831065 -0.69800001
0.066832304 -0.11831065 -0.69800001
0.068150863 -0.11831065 -0.69800001
0.069668479 -0.11864964 -0.69999999
0.070990816 -0.11864964 -0.69999999
-0.01860371 -0.11788827 -0.68800002
-0.01730404 -0.11788827 -0.68800002
-0.015981108 -0.11771692 -0.68699998
-0.014704701 -0.11788827 -0.68800002
-0.013327096 -0.11720287 -0.68400002
-0.011911816 -0.11600342 -0.67699999
-0.010617221 -0.11583208 -0.676
-0.0093402192 -0.11583208 -0.676
-0.0080632186 -0.11583208 -0.676
-0.0067862174 -0.11583208 -0.676
-0.0055092163 -0.11583208 -0.676
-0.004238476 -0.11600342 -0.67699999
-0.0029595857 -0.11600342 -0.67699999
-0.0016806957 -0.11600342 -0.67699999
-0.00040180556 -0.11600342 -0.67699999
0.0008770845 -0.11600342 -0.67699999
0.0021623438 -0.11634613 -0.67900002
0.0034450123 -0.11634613 -0.67900002
0.0047276802 -0.11634613 -0.67900002
0.0060103489 -0.11634613 -0.67900002
0.0072930171 -0.11634613 -0.67900002
0.008588315 -0.11651748 -0.68000001
0.0098728724 -0.11651748 -0.68000001
0.011190245 -0.11686017 -0.68199998
0.012478581 -0.11686017 -0.68199998
0.013787103 -0.11703153 -0.68300003
0.015077327 -0.11703153 -0.68300003
0.016367551 -0.11703153 -0.68300003
0.017657775 -0.11703153 -0.68300003
0.018948 -0.11703153 -0.68300003
0.020267855 -0.11720287 -0.68400002
0.02155997 -0.11720287 -0.68400002
0.022852084 -0.11720287 -0.68400002
0.024144197 -0.11720287 -0.68400002
0.02543631 -0.11720287 -0.68400002
0.026806576 -0.11754557 -0.68599999
0.028143432 -0.11771692 -0.68699998
0.029441213 -0.11771692 -0.68699998
0.030738994 -0.11771692 -0.68699998
0.032083411 -0.11788827 -0.68800002
0.033383079 -0.11788827 -0.68800002
0.034682751 -0.11788827 -0.68800002
0.035982419 -0.11788827 -0.68800002
0.037390467 -0.11823097 -0.69
0.038693912 -0.11823097 -0.69
0.039997362 -0.11823097 -0.69
0.041360665 -0.11840231 -0.69099998
0.042666003 -0.11840231 -0.69099998
0.043971337 -0.11840231 -0.69099998
0.045407724 -0.11874501 -0.69300002
0.046716839 -0.11874501 -0.69300002
0.048025955 -0.11874501 -0.69300002
0.04940626 -0.11891636 -0.69400001
0.050717264 -0.11891636 -0.69400001
0.052028269 -0.11891636 -0.69400001
0.053339269 -0.11891636 -0.69400001
0.054650273 -0.11891636 -0.69400001
0.056041915 -0.11908771 -0.69499999
0.057354808 -0.11908771 -0.69499999
0.058836531 -0.11943042 -0.69700003
0.060239505 -0.11960176 -0.69800001
0.061558064 -0.11960176 -0.69800001
0.062876627 -0.11960176 -0.69800001
0.064195186 -0.11960176 -0.69800001
0.065513745 -0.11960176 -0.69800001
0.066832304 -0.11960176 -0.69800001
0.068346135 -0.11994445 -0.69999999
0.069668479 -0.11994445 -0.69999999
0.070990816 -0.11994445 -0.69999999
0.072313152 -0.11994445 -0.69999999
-0.01860371 -0.11916089 -0.68800002
-0.017278889 -0.11898769 -0.68699998
-0.015957845 -0.11881449 -0.68599999
-0.014619209 -0.1184681 -0.68400002
-0.013288126 -0.11812169 -0.68199998
-0.011964601 -0.1177753 -0.68000001
-0.010632927 -0.1172557 -0.67699999
-0.0093540363 -0.1172557 -0.67699999
-0.008075146 -0.1172557 -0.67699999
-0.0067962562 -0.1172557 -0.67699999
-0.0055173659 -0.1172557 -0.67699999
-0.004238476 -0.1172557 -0.67699999
-0.0029595857 -0.1172557 -0.67699999
-0.0016856609 -0.1176021 -0.67900002
-0.00040299259 -0.1176021 -0.67900002
0.00087967567 -0.1176021 -0.67900002
0.0021623438 -0.1176021 -0.67900002
0.0034500856 -0.1177753 -0.68000001
0.0047346433 -0.1177753 -0.68000001
0.0060192002 -0.1177753 -0.68000001
0.0073037576 -0.1177753 -0.68000001
0.0086135743 -0.11812169 -0.68199998
0.0099019101 -0.11812169 -0.68199998
0.011206654 -0.1182949 -0.68300003
0.012496878 -0.1182949 -0.68300003
0.013787103 -0.1182949 -0.68300003
0.015077327 -0.1182949 -0.68300003
0.016367551 -0.1182949 -0.68300003
0.017683629 -0.1184681 -0.68400002
0.018975742 -0.1184681 -0.68400002
0.020327117 -0.11881449 -0.68599999
0.02162301 -0.11881449 -0.68599999
0.0229189 -0.11881449 -0.68599999
0.024214793 -0.11881449 -0.68599999
0.025547871 -0.11898769 -0.68699998
0.026845653 -0.11898769 -0.68699998
0.028143432 -0.11898769 -0.68699998
0.029484071 -0.11916089 -0.68800002
0.030783741 -0.11916089 -0.68800002
0.032083411 -0.11916089 -0.68800002
0.033383079 -0.11916089 -0.68800002
0.034682751 -0.11916089 -0.68800002
0.036087018 -0.11950728 -0.69
0.037390467 -0.11950728 -0.69
0.038749989 -0.11968049 -0.69099998
0.040055327 -0.11968049 -0.69099998
0.041360665 -0.11968049 -0.69099998
0.042789493 -0.12002689 -0.69300002
0.044098608 -0.12002689 -0.69300002
0.045407724 -0.12002689 -0.69300002
0.046716839 -0.12002689 -0.69300002
0.048095256 -0.12020008 -0.69400001
0.04940626 -0.12020008 -0.69400001
0.050717264 -0.12020008 -0.69400001
0.052103236 -0.12037328 -0.69499999
0.053416129 -0.12037328 -0.69499999
0.054886516 -0.12071969 -0.69700003
0.056203187 -0.12071969 -0.69700003
0.057519861 -0.12071969 -0.69700003
0.058920942 -0.12089288 -0.69800001
0.060239505 -0.12089288 -0.69800001
0.061558064 -0.12089288 -0.69800001
0.062876627 -0.12089288 -0.69800001
0.064379126 -0.12123927 -0.69999999
0.065701462 -0.12123927 -0.69999999
0.067023799 -0.12123927 -0.69999999
0.068346135 -0.12123927 -0.69999999
0.069668479 -0.12123927 -0.69999999
0.070990816 -0.12123927 -0.69999999
0.072416455 -0.12141247 -0.70099998
-0.018576669 -0.12025846 -0.68699998
-0.017203435 -0.11973332 -0.68400002
-0.015888061 -0.11955827 -0.68300003
-0.014597836 -0.11955827 -0.68300003
-0.013288126 -0.11938322 -0.68199998
-0.011964601 -0.11903312 -0.68000001
-0.010680044 -0.11903312 -0.68000001
-0.0093816705 -0.11885808 -0.67900002
-0.0080990018 -0.11885808 -0.67900002
-0.0068163341 -0.11885808 -0.67900002
-0.0055336654 -0.11885808 -0.67900002
-0.0042509972 -0.11885808 -0.67900002
-0.002968329 -0.11885808 -0.67900002
-0.0016881434 -0.11903312 -0.68000001
-0.00040358611 -0.11903312 -0.68000001
0.0008809712 -0.11903312 -0.68000001
0.0021655285 -0.11903312 -0.68000001
0.0034602329 -0.11938322 -0.68199998
0.0047485684 -0.11938322 -0.68199998
0.0060369037 -0.11938322 -0.68199998
0.007325239 -0.11938322 -0.68199998
0.0086135743 -0.11938322 -0.68199998
0.0099164294 -0.11955827 -0.68300003
0.011206654 -0.11955827 -0.68300003
0.012515175 -0.11973332 -0.68400002
0.013807288 -0.11973332 -0.68400002
0.015143552 -0.12008341 -0.68599999
0.016439443 -0.12008341 -0.68599999
0.017735334 -0.12008341 -0.68599999
0.019031227 -0.12008341 -0.68599999
0.020356748 -0.12025846 -0.68699998
0.021654529 -0.12025846 -0.68699998
0.022952311 -0.12025846 -0.68699998
0.02425009 -0.12025846 -0.68699998
0.025547871 -0.12025846 -0.68699998
0.026884731 -0.12043352 -0.68800002
0.028184401 -0.12043352 -0.68800002
0.029484071 -0.12043352 -0.68800002
0.030783741 -0.12043352 -0.68800002
0.032176673 -0.1207836 -0.69
0.033480123 -0.1207836 -0.69
0.034783568 -0.1207836 -0.69
0.036139317 -0.12095866 -0.69099998
0.037444655 -0.12095866 -0.69099998
0.038749989 -0.12095866 -0.69099998
0.040171266 -0.12130876 -0.69300002
0.041480377 -0.12130876 -0.69300002
0.042789493 -0.12130876 -0.69300002
0.044098608 -0.12130876 -0.69300002
0.045473248 -0.1214838 -0.69400001
0.046784252 -0.1214838 -0.69400001
0.048164554 -0.12165885 -0.69499999
0.049477447 -0.12165885 -0.69499999
0.05079034 -0.12165885 -0.69499999
0.052253176 -0.12200896 -0.69700003
0.053569846 -0.12200896 -0.69700003
0.054965261 -0.122184 -0.69800001
0.056283824 -0.122184 -0.69800001
0.057602383 -0.122184 -0.69800001
0.058920942 -0.122184 -0.69800001
0.060412109 -0.1225341 -0.69999999
0.061734445 -0.1225341 -0.69999999
0.063056782 -0.1225341 -0.69999999
0.064379126 -0.1225341 -0.69999999
0.065701462 -0.1225341 -0.69999999
0.067023799 -0.1225341 -0.69999999
0.068443775 -0.12270914 -0.70099998
0.069768004 -0.12270914 -0.70099998
0.071092226 -0.12270914 -0.70099998
-0.01987445 -0.12152923 -0.68699998
-0.01846851 -0.12082165 -0.68300003
-0.017178286 -0.12082165 -0.68300003
-0.015888061 -0.12082165 -0.68300003
-0.014597836 -0.12082165 -0.68300003
-0.013288126 -0.12064474 -0.68199998
-0.011999791 -0.12064474 -0.68199998
-0.010680044 -0.12029094 -0.68000001
-0.0093954867 -0.12029094 -0.68000001
-0.0081109302 -0.12029094 -0.68000001
-0.0068263724 -0.12029094 -0.68000001
-0.0055418154 -0.12029094 -0.68000001
-0.004257258 -0.12029094 -0.68000001
-0.0029727006 -0.12029094 -0.68000001
-0.0016931085 -0.12064474 -0.68199998
-0.00040477311 -0.12064474 -0.68199998
0.00088356226 -0.12064474 -0.68199998
0.0021718976 -0.12064474 -0.68199998
0.0034602329 -0.12064474 -0.68199998
0.0047485684 -0.12064474 -0.68199998
0.0060369037 -0.12064474 -0.68199998
0.0073359804 -0.12082165 -0.68300003
0.0086262049 -0.12082165 -0.68300003
0.0099309478 -0.12099854 -0.68400002
0.011223062 -0.12099854 -0.68400002
0.012551769 -0.12135233 -0.68599999
0.01384766 -0.12135233 -0.68599999
0.015165627 -0.12152923 -0.68699998
0.016463406 -0.12152923 -0.68699998
0.017761188 -0.12152923 -0.68699998
0.019058969 -0.12152923 -0.68699998
0.020356748 -0.12152923 -0.68699998
0.021654529 -0.12152923 -0.68699998
0.022952311 -0.12152923 -0.68699998
0.024285391 -0.12170614 -0.68800002
0.025585061 -0.12170614 -0.68800002
0.026884731 -0.12170614 -0.68800002
0.028266331 -0.12205993 -0.69
0.029569779 -0.12205993 -0.69
0.03091797 -0.12223683 -0.69099998
0.032223307 -0.12223683 -0.69099998
0.033528645 -0.12223683 -0.69099998
0.034833979 -0.12223683 -0.69099998
0.036243919 -0.12259062 -0.69300002
0.037553035 -0.12259062 -0.69300002
0.03886215 -0.12259062 -0.69300002
0.040171266 -0.12259062 -0.69300002
0.041480377 -0.12259062 -0.69300002
0.042851239 -0.12276752 -0.69400001
0.044162244 -0.12276752 -0.69400001
0.045473248 -0.12276752 -0.69400001
0.046851661 -0.12294442 -0.69499999
0.048303161 -0.12329822 -0.69700003
0.049619831 -0.12329822 -0.69700003
0.05100958 -0.12347512 -0.69800001
0.052328143 -0.12347512 -0.69800001
0.053646702 -0.12347512 -0.69800001
0.055122755 -0.12382891 -0.69999999
0.056445092 -0.12382891 -0.69999999
0.057767432 -0.12382891 -0.69999999
0.059089769 -0.12382891 -0.69999999
0.060412109 -0.12382891 -0.69999999
0.061734445 -0.12382891 -0.69999999
0.063146867 -0.12400581 -0.70099998
0.064471088 -0.12400581 -0.70099998
0.065795317 -0.12400581 -0.70099998
0.067119546 -0.12400581 -0.70099998
0.068639055 -0.12435961 -0.70300001
0.069967054 -0.12435961 -0.70300001
-0.019758735 -0.12208502 -0.68300003
-0.01846851 -0.12208502 -0.68300003
-0.017178286 -0.12208502 -0.68300003
-0.015888061 -0.12208502 -0.68300003
-0.014597836 -0.12208502 -0.68300003
-0.013288126 -0.12190626 -0.68199998
-0.011999791 -0.12190626 -0.68199998
-0.010711456 -0.12190626 -0.68199998
-0.0094231209 -0.12190626 -0.68199998
-0.0081347851 -0.12190626 -0.68199998
-0.0068464498 -0.12190626 -0.68199998
-0.0055581145 -0.12190626 -0.68199998
-0.0042697792 -0.12190626 -0.68199998
-0.0029814439 -0.12190626 -0.68199998
-0.0016931085 -0.12190626 -0.68199998
-0.00040536665 -0.12208502 -0.68300003
0.00088485784 -0.12208502 -0.68300003
0.0021750825 -0.12208502 -0.68300003
0.0034653067 -0.12208502 -0.68300003
0.004762494 -0.12226376 -0.68400002
0.0060546077 -0.12226376 -0.68400002
0.0073467209 -0.12226376 -0.68400002
0.0086640939 -0.12262125 -0.68599999
0.0099599855 -0.12262125 -0.68599999
0.011272285 -0.1228 -0.68699998
0.012570065 -0.1228 -0.68699998
0.013867846 -0.1228 -0.68699998
0.015165627 -0.1228 -0.68699998
0.016463406 -0.1228 -0.68699998
0.017761188 -0.1228 -0.68699998
0.019086713 -0.12297875 -0.68800002
0.020386381 -0.12297875 -0.68800002
0.021686051 -0.12297875 -0.68800002
0.022985721 -0.12297875 -0.68800002
0.024285391 -0.12297875 -0.68800002
0.025659434 -0.12333625 -0.69
0.026962884 -0.12333625 -0.69
0.028307296 -0.12351499 -0.69099998
0.029612632 -0.12351499 -0.69099998
0.031007459 -0.1238725 -0.69300002
0.032316573 -0.1238725 -0.69300002
0.033625688 -0.1238725 -0.69300002
0.034934804 -0.1238725 -0.69300002
0.036243919 -0.1238725 -0.69300002
0.037553035 -0.1238725 -0.69300002
0.03886215 -0.1238725 -0.69300002
0.040229231 -0.12405124 -0.69400001
0.041540235 -0.12405124 -0.69400001
0.042851239 -0.12405124 -0.69400001
0.044225875 -0.12422999 -0.69499999
0.045669816 -0.12458749 -0.69700003
0.04698649 -0.12458749 -0.69700003
0.048372462 -0.12476624 -0.69800001
0.049691021 -0.12476624 -0.69800001
0.05100958 -0.12476624 -0.69800001
0.052478079 -0.12512372 -0.69999999
0.053800415 -0.12512372 -0.69999999
0.055122755 -0.12512372 -0.69999999
0.056445092 -0.12512372 -0.69999999
0.057767432 -0.12512372 -0.69999999
0.059089769 -0.12512372 -0.69999999
0.060498409 -0.12530248 -0.70099998
0.061822638 -0.12530248 -0.70099998
0.063327029 -0.12565997 -0.70300001
0.064655036 -0.12565997 -0.70300001
0.065983042 -0.12565997 -0.70300001
0.067311049 -0.12565997 -0.70300001
0.068736687 -0.12583873 -0.704
-0.021048959 -0.12334839 -0.68300003
-0.019758735 -0.12334839 -0.68300003
-0.01846851 -0.12334839 -0.68300003
-0.017178286 -0.12334839 -0.68300003
-0.015888061 -0.12334839 -0.68300003
-0.014597836 -0.12334839 -0.68300003
-0.013307611 -0.12334839 -0.68300003
-0.012017387 -0.12334839 -0.68300003
-0.010727162 -0.12334839 -0.68300003
-0.009436938 -0.12334839 -0.68300003
-0.0081467135 -0.12334839 -0.68300003
-0.006856489 -0.12334839 -0.68300003
-0.0055662645 -0.12334839 -0.68300003
-0.00427604 -0.12334839 -0.68300003
-0.0029858155 -0.12334839 -0.68300003
-0.0016955911 -0.12334839 -0.68300003
-0.00040596013 -0.12352899 -0.68400002
0.00088615337 -0.12352899 -0.68400002
0.0021782669 -0.12352899 -0.68400002
0.0034805275 -0.12389018 -0.68599999
0.0047764191 -0.12389018 -0.68599999
0.0060723107 -0.12389018 -0.68599999
0.0073682023 -0.12389018 -0.68599999
0.0086767236 -0.12407077 -0.68699998
0.0099745039 -0.12407077 -0.68699998
0.011272285 -0.12407077 -0.68699998
0.012588363 -0.12425138 -0.68800002
0.013888033 -0.12425138 -0.68800002
0.015187703 -0.12425138 -0.68800002
0.016487373 -0.12425138 -0.68800002
0.017787043 -0.12425138 -0.68800002
0.019086713 -0.12425138 -0.68800002
0.020386381 -0.12425138 -0.68800002
0.021749092 -0.12461257 -0.69
0.02305254 -0.12461257 -0.69
0.024355987 -0.12461257 -0.69
0.025696622 -0.12479316 -0.69099998
0.027001958 -0.12479316 -0.69099998
0.028389229 -0.12515436 -0.69300002
0.029698344 -0.12515436 -0.69300002
0.031007459 -0.12515436 -0.69300002
0.032316573 -0.12515436 -0.69300002
0.03367421 -0.12533496 -0.69400001
0.034985214 -0.12533496 -0.69400001
0.036296219 -0.12533496 -0.69400001
0.037607223 -0.12533496 -0.69400001
0.038918227 -0.12533496 -0.69400001
0.040287197 -0.12551557 -0.69499999
0.04160009 -0.12551557 -0.69499999
0.043036476 -0.12587675 -0.69700003
0.044416782 -0.12605736 -0.69800001
0.045735341 -0.12605736 -0.69800001
0.0470539 -0.12605736 -0.69800001
0.048372462 -0.12605736 -0.69800001
0.049833402 -0.12641855 -0.69999999
0.051155739 -0.12641855 -0.69999999
0.052478079 -0.12641855 -0.69999999
0.053800415 -0.12641855 -0.69999999
0.055201501 -0.12659915 -0.70099998
0.056525726 -0.12659915 -0.70099998
0.057849955 -0.12659915 -0.70099998
0.059174184 -0.12659915 -0.70099998
0.06067102 -0.12696034 -0.70300001
0.061999023 -0.12696034 -0.70300001
0.063417107 -0.12714094 -0.704
0.064747006 -0.12714094 -0.704
0.066076897 -0.12714094 -0.704
0.067406796 -0.12714094 -0.704
0.068834327 -0.12732154 -0.70499998
-0.021048959 -0.12461177 -0.68300003
-0.019758735 -0.12461177 -0.68300003
-0.01846851 -0.12461177 -0.68300003
-0.017178286 -0.12461177 -0.68300003
-0.015888061 -0.12461177 -0.68300003
-0.014597836 -0.12461177 -0.68300003
-0.013307611 -0.12461177 -0.68300003
-0.012017387 -0.12461177 -0.68300003
-0.010727162 -0.12461177 -0.68300003
-0.009436938 -0.12461177 -0.68300003
-0.0081467135 -0.12461177 -0.68300003
-0.0068665277 -0.12479421 -0.68400002
-0.005574414 -0.12479421 -0.68400002
-0.0042823008 -0.12479421 -0.68400002
-0.0029901871 -0.12479421 -0.68400002
-0.0016980737 -0.12479421 -0.68400002
-0.00040596013 -0.12479421 -0.68400002
0.00088874443 -0.1251591 -0.68599999
0.002184636 -0.1251591 -0.68599999
0.0034856012 -0.12534155 -0.68699998
0.0047833817 -0.12534155 -0.68699998
0.0060811625 -0.12534155 -0.68699998
0.0073789428 -0.12534155 -0.68699998
0.0086767236 -0.12534155 -0.68699998
0.0099745039 -0.12534155 -0.68699998
0.011288693 -0.125524 -0.68800002
0.012588363 -0.125524 -0.68800002
0.013888033 -0.125524 -0.68800002
0.015231852 -0.12588888 -0.69
0.016535301 -0.12588888 -0.69
0.017838748 -0.12588888 -0.69
0.019169938 -0.12607133 -0.69099998
0.020475274 -0.12607133 -0.69099998
0.021780612 -0.12607133 -0.69099998
0.023085948 -0.12607133 -0.69099998
0.024461884 -0.12643623 -0.69300002
0.025770999 -0.12643623 -0.69300002
0.027080113 -0.12643623 -0.69300002
0.028389229 -0.12643623 -0.69300002
0.029741198 -0.12661868 -0.69400001
0.031052202 -0.12661868 -0.69400001
0.032363206 -0.12661868 -0.69400001
0.03367421 -0.12661868 -0.69400001
0.034985214 -0.12661868 -0.69400001
0.036296219 -0.12661868 -0.69400001
0.037661411 -0.12680113 -0.69499999
0.039086461 -0.12716603 -0.69700003
0.040403131 -0.12716603 -0.69700003
0.04177966 -0.12734847 -0.69800001
0.043098219 -0.12734847 -0.69800001
0.044416782 -0.12734847 -0.69800001
0.045735341 -0.12734847 -0.69800001
0.047188725 -0.12771337 -0.69999999
0.048511062 -0.12771337 -0.69999999
0.049833402 -0.12771337 -0.69999999
0.051155739 -0.12771337 -0.69999999
0.052553046 -0.12789582 -0.70099998
0.053877272 -0.12789582 -0.70099998
0.055201501 -0.12789582 -0.70099998
0.056687001 -0.12826072 -0.70300001
0.058015008 -0.12826072 -0.70300001
0.059343014 -0.12826072 -0.70300001
0.06067102 -0.12826072 -0.70300001
0.062087215 -0.12844315 -0.704
0.063417107 -0.12844315 -0.704
0.064747006 -0.12844315 -0.704
0.066076897 -0.12844315 -0.704
0.067502543 -0.1286256 -0.70499998
0.069127239 -0.12917295 -0.708
-0.021048959 -0.12587513 -0.68300003
-0.019758735 -0.12587513 -0.68300003
-0.01846851 -0.12587513 -0.68300003
-0.017178286 -0.12587513 -0.68300003
-0.015911322 -0.12605943 -0.68400002
-0.014619209 -0.12605943 -0.68400002
-0.013327096 -0.12605943 -0.68400002
-0.012017387 -0.12587513 -0.68300003
-0.010727162 -0.12587513 -0.68300003
-0.009436938 -0.12587513 -0.68300003
-0.0081586409 -0.12605943 -0.68400002
-0.0068665277 -0.12605943 -0.68400002
-0.005574414 -0.12605943 -0.68400002
-0.004294822 -0.12642802 -0.68599999
-0.0029989304 -0.12642802 -0.68599999
-0.0017030387 -0.12642802 -0.68599999
-0.00040714713 -0.12642802 -0.68599999
0.00089003996 -0.12661232 -0.68699998
0.0021878206 -0.12661232 -0.68699998
0.0034856012 -0.12661232 -0.68699998
0.0047903447 -0.12679662 -0.68800002
0.0060900147 -0.12679662 -0.68800002
0.0073896842 -0.12679662 -0.68800002
0.0086893542 -0.12679662 -0.68800002
0.0099890241 -0.12679662 -0.68800002
0.011321509 -0.12716521 -0.69
0.012624957 -0.12716521 -0.69
0.013928405 -0.12716521 -0.69
0.015231852 -0.12716521 -0.69
0.016559264 -0.12734951 -0.69099998
0.017864602 -0.12734951 -0.69099998
0.019225424 -0.12771811 -0.69300002
0.020534538 -0.12771811 -0.69300002
0.021843653 -0.12771811 -0.69300002
0.023152769 -0.12771811 -0.69300002
0.024461884 -0.12771811 -0.69300002
0.025808185 -0.1279024 -0.69400001
0.02711919 -0.1279024 -0.69400001
0.028430194 -0.1279024 -0.69400001
0.029741198 -0.1279024 -0.69400001
0.031052202 -0.1279024 -0.69400001
0.032363206 -0.1279024 -0.69400001
0.033722732 -0.1280867 -0.69499999
0.035035625 -0.1280867 -0.69499999
0.036348518 -0.1280867 -0.69499999
0.037769791 -0.1284553 -0.69700003
0.039142538 -0.12863959 -0.69800001
0.040461101 -0.12863959 -0.69800001
0.04177966 -0.12863959 -0.69800001
0.043221708 -0.12900819 -0.69999999
0.044544049 -0.12900819 -0.69999999
0.045866385 -0.12900819 -0.69999999
0.047188725 -0.12900819 -0.69999999
0.048511062 -0.12900819 -0.69999999
0.049904592 -0.12919247 -0.70099998
0.051228818 -0.12919247 -0.70099998
0.052702986 -0.12956108 -0.70300001
0.054030992 -0.12956108 -0.70300001
0.055358995 -0.12956108 -0.70300001
0.056687001 -0.12956108 -0.70300001
0.058015008 -0.12956108 -0.70300001
0.059427425 -0.12974538 -0.704
0.06075732 -0.12974538 -0.704
0.062175404 -0.12992968 -0.70499998
0.063507192 -0.12992968 -0.70499998
0.064838976 -0.12992968 -0.70499998
0.066358477 -0.13029827 -0.70700002
0.067789786 -0.13048257 -0.708
-0.02237189 -0.12732466 -0.68400002
-0.021079777 -0.12732466 -0.68400002
-0.019787664 -0.12732466 -0.68400002
-0.018495549 -0.12732466 -0.68400002
-0.017203435 -0.12732466 -0.68400002
-0.015911322 -0.12732466 -0.68400002
-0.014619209 -0.12732466 -0.68400002
-0.013327096 -0.12732466 -0.68400002
-0.012034982 -0.12732466 -0.68400002
-0.010742868 -0.12732466 -0.68400002
-0.0094507551 -0.12732466 -0.68400002
-0.0081586409 -0.12732466 -0.68400002
-0.0068866052 -0.12769695 -0.68599999
-0.0055907136 -0.12769695 -0.68599999
-0.0043010823 -0.12788309 -0.68699998
-0.0030033018 -0.12788309 -0.68699998
-0.0017055213 -0.12788309 -0.68699998
-0.00040774065 -0.12788309 -0.68699998
0.00089133554 -0.12806924 -0.68800002
0.0021910053 -0.12806924 -0.68800002
0.003490675 -0.12806924 -0.68800002
0.0047903447 -0.12806924 -0.68800002
0.0060900147 -0.12806924 -0.68800002
0.0073896842 -0.12806924 -0.68800002
0.0087146135 -0.12844153 -0.69
0.010018061 -0.12844153 -0.69
0.011337917 -0.12862767 -0.69099998
0.012643253 -0.12862767 -0.69099998
0.01394859 -0.12862767 -0.69099998
0.015253928 -0.12862767 -0.69099998
0.016607193 -0.12899998 -0.69300002
0.017916309 -0.12899998 -0.69300002
0.019225424 -0.12899998 -0.69300002
0.020534538 -0.12899998 -0.69300002
0.021843653 -0.12899998 -0.69300002
0.023152769 -0.12899998 -0.69300002
0.024497181 -0.12918612 -0.69400001
0.025808185 -0.12918612 -0.69400001
0.02711919 -0.12918612 -0.69400001
0.028430194 -0.12918612 -0.69400001
0.029784052 -0.12937227 -0.69499999
0.031096945 -0.12937227 -0.69499999
0.032409839 -0.12937227 -0.69499999
0.033819776 -0.12974456 -0.69700003
0.035136446 -0.12974456 -0.69700003
0.03645312 -0.12974456 -0.69700003
0.037823979 -0.1299307 -0.69800001
0.039142538 -0.1299307 -0.69800001
0.040577032 -0.130303 -0.69999999
0.041899372 -0.130303 -0.69999999
0.043221708 -0.130303 -0.69999999
0.04460768 -0.13048914 -0.70099998
0.045931909 -0.13048914 -0.70099998
0.047256134 -0.13048914 -0.70099998
0.048580363 -0.13048914 -0.70099998
0.050046973 -0.13086145 -0.70300001
0.051374979 -0.13086145 -0.70300001
0.052777953 -0.13104759 -0.704
0.054107849 -0.13104759 -0.704
0.055437744 -0.13104759 -0.704
0.056767635 -0.13104759 -0.704
0.05809753 -0.13104759 -0.704
0.059427425 -0.13104759 -0.704
0.060843624 -0.13123374 -0.70499998
0.062351793 -0.13160604 -0.70700002
0.063687354 -0.13160604 -0.70700002
0.065114886 -0.13179219 -0.708
-0.02237189 -0.12858987 -0.68400002
-0.021079777 -0.12858987 -0.68400002
-0.019787664 -0.12858987 -0.68400002
-0.018495549 -0.12858987 -0.68400002
-0.017203435 -0.12858987 -0.68400002
-0.015911322 -0.12858987 -0.68400002
-0.014619209 -0.12858987 -0.68400002
-0.013366063 -0.12896587 -0.68599999
-0.012070172 -0.12896587 -0.68599999
-0.01077428 -0.12896587 -0.68599999
-0.0094783884 -0.12896587 -0.68599999
-0.0081824968 -0.12896587 -0.68599999
-0.0068966439 -0.12915386 -0.68699998
-0.0055988631 -0.12915386 -0.68699998
-0.0043010823 -0.12915386 -0.68699998
-0.0030033018 -0.12915386 -0.68699998
-0.0017055213 -0.12915386 -0.68699998
-0.00040833419 -0.12934187 -0.68800002
0.00089133554 -0.12934187 -0.68800002
0.0021910053 -0.12934187 -0.68800002
0.0035008222 -0.12971786 -0.69
0.0048042699 -0.12971786 -0.69
0.0061077178 -0.12971786 -0.69
0.0074111656 -0.12971786 -0.69
0.0087272432 -0.12990585 -0.69099998
0.01003258 -0.12990585 -0.69099998
0.011370733 -0.13028185 -0.69300002
0.012679849 -0.13028185 -0.69300002
0.013988963 -0.13028185 -0.69300002
0.015298079 -0.13028185 -0.69300002
0.016607193 -0.13028185 -0.69300002
0.017916309 -0.13028185 -0.69300002
0.019225424 -0.13028185 -0.69300002
0.020534538 -0.13028185 -0.69300002
0.021875173 -0.13046984 -0.69400001
0.023186177 -0.13046984 -0.69400001
0.024497181 -0.13046984 -0.69400001
0.025845373 -0.13065784 -0.69499999
0.027158266 -0.13065784 -0.69499999
0.028471159 -0.13065784 -0.69499999
0.029784052 -0.13065784 -0.69499999
0.031186434 -0.13103384 -0.69700003
0.032503106 -0.13103384 -0.69700003
0.033868298 -0.13122183 -0.69800001
0.035186857 -0.13122183 -0.69800001
0.03650542 -0.13122183 -0.69800001
0.037823979 -0.13122183 -0.69800001
0.039254695 -0.13159782 -0.69999999
0.040577032 -0.13159782 -0.69999999
0.041959226 -0.13178581 -0.70099998
0.043283455 -0.13178581 -0.70099998
0.04460768 -0.13178581 -0.70099998
0.046062957 -0.13216181 -0.70300001
0.047390964 -0.13216181 -0.70300001
0.04871897 -0.13216181 -0.70300001
0.050118163 -0.1323498 -0.704
0.051448058 -0.1323498 -0.704
0.052777953 -0.1323498 -0.704
0.054107849 -0.1323498 -0.704
0.055437744 -0.1323498 -0.704
0.056848273 -0.1325378 -0.70499998
0.058180057 -0.1325378 -0.70499998
0.05951184 -0.1325378 -0.70499998
-0.022437304 -0.13023478 -0.68599999
-0.021079777 -0.1298551 -0.68400002
-0.019845521 -0.13023478 -0.68599999
-0.018549629 -0.13023478 -0.68599999
-0.017253738 -0.13023478 -0.68599999
-0.015957845 -0.13023478 -0.68599999
-0.014661955 -0.13023478 -0.68599999
-0.013366063 -0.13023478 -0.68599999
-0.012070172 -0.13023478 -0.68599999
-0.01077428 -0.13023478 -0.68599999
-0.0094922045 -0.13042463 -0.68699998
-0.0081944242 -0.13042463 -0.68699998
-0.0068966439 -0.13042463 -0.68699998
-0.0055988631 -0.13042463 -0.68699998
-0.0043073436 -0.13061449 -0.68800002
-0.0030076737 -0.13061449 -0.68800002
-0.0017080039 -0.13061449 -0.68800002
-0.00040833419 -0.13061449 -0.68800002
0.00089392666 -0.13099417 -0.69
0.0021973744 -0.13099417 -0.69
0.0035058958 -0.13118401 -0.69099998
0.0048112329 -0.13118401 -0.69099998
0.0061165695 -0.13118401 -0.69099998
0.0074219066 -0.13118401 -0.69099998
0.0087525034 -0.13156372 -0.69300002
0.010061619 -0.13156372 -0.69300002
0.011370733 -0.13156372 -0.69300002
0.012679849 -0.13156372 -0.69300002
0.01400915 -0.13175356 -0.69400001
0.015320153 -0.13175356 -0.69400001
0.016631158 -0.13175356 -0.69400001
0.017942162 -0.13175356 -0.69400001
0.019253166 -0.13175356 -0.69400001
0.0205938 -0.1319434 -0.69499999
0.021906694 -0.1319434 -0.69499999
0.023219587 -0.1319434 -0.69499999
0.024603078 -0.1323231 -0.69700003
0.025919748 -0.1323231 -0.69700003
0.027236421 -0.1323231 -0.69700003
0.028553091 -0.1323231 -0.69700003
0.029869763 -0.1323231 -0.69700003
0.031231178 -0.13251294 -0.69800001
0.032549739 -0.13251294 -0.69800001
0.033868298 -0.13251294 -0.69800001
0.035186857 -0.13251294 -0.69800001
0.03650542 -0.13251294 -0.69800001
0.037932355 -0.13289264 -0.69999999
0.039254695 -0.13289264 -0.69999999
0.040634997 -0.13308248 -0.70099998
0.042078942 -0.13346218 -0.70300001
0.043406945 -0.13346218 -0.70300001
0.044734951 -0.13346218 -0.70300001
0.046128482 -0.13365203 -0.704
0.047458373 -0.13365203 -0.704
0.048788268 -0.13365203 -0.704
0.050118163 -0.13365203 -0.704
0.051521137 -0.13384187 -0.70499998
0.052852921 -0.13384187 -0.70499998
0.054184705 -0.13384187 -0.70499998
-0.02247001 -0.1316954 -0.68699998
-0.021141412 -0.1315037 -0.68599999
-0.019845521 -0.1315037 -0.68599999
-0.018576669 -0.1316954 -0.68699998
-0.017278889 -0.1316954 -0.68699998
-0.015957845 -0.1315037 -0.68599999
-0.014661955 -0.1315037 -0.68599999
-0.013366063 -0.1315037 -0.68599999
-0.012087766 -0.1316954 -0.68699998
-0.010789986 -0.1316954 -0.68699998
-0.0094922045 -0.1316954 -0.68699998
-0.0081944242 -0.1316954 -0.68699998
