# .PCD v0.7 - Point Cloud Data file format
VERSION 0.7
FIELDS x y z
SIZE 4 4 4
TYPE F F F
COUNT 1 1 1
WIDTH 1366
HEIGHT 1
VIEWPOINT 0 0 0 1 0 0 0
POINTS 1366
DATA ascii
-0.11616336 -0.11533779 -0.65200001
-0.1149317 -0.11533779 -0.65200001
-0.11370003 -0.11533779 -0.65200001
-0.11246837 -0.11533779 -0.65200001
-0.11123671 -0.11533779 -0.65200001
-0.11017376 -0.11551469 -0.653
-0.10894021 -0.11551469 -0.653
-0.10787159 -0.11569158 -0.65399998
-0.10663615 -0.11569158 -0.65399998
-0.10556187 -0.11586848 -0.65499997
-0.10432454 -0.11586848 -0.65499997
-0.10308721 -0.11586848 -0.65499997
-0.10184988 -0.11586848 -0.65499997
-0.10091977 -0.11622228 -0.65700001
-0.099678658 -0.11622228 -0.65700001
-0.098437548 -0.11622228 -0.65700001
-0.097196437 -0.11622228 -0.65700001
-0.095955327 -0.11622228 -0.65700001
-0.094714224 -0.11622228 -0.65700001
-0.093615383 -0.11639918 -0.65799999
-0.092372388 -0.11639918 -0.65799999
-0.091129385 -0.11639918 -0.65799999
-0.090022996 -0.11657608 -0.65899998
-0.088778108 -0.11657608 -0.65899998
-0.087533221 -0.11657608 -0.65899998
-0.086288333 -0.11657608 -0.65899998
-0.085172497 -0.11675298 -0.66000003
-0.083925724 -0.11675298 -0.66000003
-0.082678944 -0.11675298 -0.66000003
-0.081432171 -0.11675298 -0.66000003
-0.080185391 -0.11675298 -0.66000003
-0.079177827 -0.11710677 -0.662
-0.077927269 -0.11710677 -0.662
-0.076792538 -0.11728366 -0.66299999
-0.07565403 -0.11746056 -0.66399997
-0.074399695 -0.11746056 -0.66399997
-0.073365688 -0.11781437 -0.66600001
-0.072107576 -0.11781437 -0.66600001
-0.070849463 -0.11781437 -0.66600001
-0.13402048 -0.11708006 -0.65499997
-0.13237771 -0.11672257 -0.653
-0.13114415 -0.11672257 -0.653
-0.12971166 -0.11654382 -0.65200001
-0.12848 -0.11654382 -0.65200001
-0.12724833 -0.11654382 -0.65200001
-0.12601668 -0.11654382 -0.65200001
-0.12478501 -0.11654382 -0.65200001
-0.12355334 -0.11654382 -0.65200001
-0.12232168 -0.11654382 -0.65200001
-0.12109002 -0.11654382 -0.65200001
-0.11985835 -0.11654382 -0.65200001
-0.11862669 -0.11654382 -0.65200001
-0.11739503 -0.11654382 -0.65200001
-0.11634152 -0.11672257 -0.653
-0.11510797 -0.11672257 -0.653
-0.11387442 -0.11672257 -0.653
-0.11281336 -0.11690131 -0.65399998
-0.11157792 -0.11690131 -0.65399998
-0.11051119 -0.11708006 -0.65499997
-0.10927387 -0.11708006 -0.65499997
-0.10803653 -0.11708006 -0.65499997
-0.1067992 -0.11708006 -0.65499997
-0.1058842 -0.11743756 -0.65700001
-0.10464309 -0.11743756 -0.65700001
-0.10340198 -0.11743756 -0.65700001
-0.10216088 -0.11743756 -0.65700001
-0.10091977 -0.11743756 -0.65700001
-0.099678658 -0.11743756 -0.65700001
-0.098437548 -0.11743756 -0.65700001
-0.097344376 -0.1176163 -0.65799999
-0.096101381 -0.1176163 -0.65799999
-0.094858378 -0.1176163 -0.65799999
-0.093757652 -0.11779505 -0.65899998
-0.092512764 -0.11779505 -0.65899998
-0.091267876 -0.11779505 -0.65899998
-0.090022996 -0.11779505 -0.65899998
-0.08891283 -0.1179738 -0.66000003
-0.08766605 -0.1179738 -0.66000003
-0.086419277 -0.1179738 -0.66000003
-0.085172497 -0.1179738 -0.66000003
-0.083925724 -0.1179738 -0.66000003
-0.082678944 -0.1179738 -0.66000003
-0.081432171 -0.1179738 -0.66000003
-0.080428377 -0.1183313 -0.662
-0.079177827 -0.1183313 -0.662
-0.078044981 -0.11851005 -0.66299999
-0.076908365 -0.11868879 -0.66399997
-0.07565403 -0.11868879 -0.66399997
-0.074623801 -0.11904629 -0.66600001
-0.073365688 -0.11904629 -0.66600001
-0.072107576 -0.11904629 -0.66600001
-0.070849463 -0.11904629 -0.66600001
-0.069695845 -0.11922504 -0.667
-0.13525781 -0.11829164 -0.65499997
-0.13402048 -0.11829164 -0.65499997
-0.13258043 -0.11811104 -0.65399998
-0.13114415 -0.11793045 -0.653
-0.1299106 -0.11793045 -0.653
-0.12848 -0.11774985 -0.65200001
-0.12724833 -0.11774985 -0.65200001
-0.12601668 -0.11774985 -0.65200001
-0.12478501 -0.11774985 -0.65200001
-0.12355334 -0.11774985 -0.65200001
-0.12232168 -0.11774985 -0.65200001
-0.12127574 -0.11793045 -0.653
-0.12004218 -0.11793045 -0.653
-0.11880863 -0.11793045 -0.653
-0.11775513 -0.11811104 -0.65399998
-0.11651968 -0.11811104 -0.65399998
-0.11528424 -0.11811104 -0.65399998
-0.11422319 -0.11829164 -0.65499997
-0.11298586 -0.11829164 -0.65499997
-0.11174852 -0.11829164 -0.65499997
-0.11084864 -0.11865284 -0.65700001
-0.10960753 -0.11865284 -0.65700001
-0.10836642 -0.11865284 -0.65700001
-0.10712531 -0.11865284 -0.65700001
-0.10604537 -0.11883344 -0.65799999
-0.10480236 -0.11883344 -0.65799999
-0.10355937 -0.11883344 -0.65799999
-0.10231637 -0.11883344 -0.65799999
-0.10107337 -0.11883344 -0.65799999
-0.099830374 -0.11883344 -0.65799999
-0.098737203 -0.11901403 -0.65899998
-0.097492315 -0.11901403 -0.65899998
-0.096247427 -0.11901403 -0.65899998
-0.095002539 -0.11901403 -0.65899998
-0.093899935 -0.11919463 -0.66000003
-0.092653155 -0.11919463 -0.66000003
-0.091406383 -0.11919463 -0.66000003
-0.090159602 -0.11919463 -0.66000003
-0.08891283 -0.11919463 -0.66000003
-0.08766605 -0.11919463 -0.66000003
-0.086419277 -0.11919463 -0.66000003
-0.085172497 -0.11919463 -0.66000003
-0.084180042 -0.11955583 -0.662
-0.082929485 -0.11955583 -0.662
-0.081678934 -0.11955583 -0.662
-0.080428377 -0.11955583 -0.662
-0.079297423 -0.11973643 -0.66299999
-0.078162692 -0.11991702 -0.66399997
-0.076908365 -0.11991702 -0.66399997
-0.075881906 -0.12027822 -0.66600001
-0.074623801 -0.12027822 -0.66600001
-0.073365688 -0.12027822 -0.66600001
-0.072107576 -0.12027822 -0.66600001
-0.070955843 -0.12045882 -0.667
-0.069695845 -0.12045882 -0.667
-0.068435848 -0.12045882 -0.667
-0.13649514 -0.11950321 -0.65499997
-0.13525781 -0.11950321 -0.65499997
-0.13402048 -0.11950321 -0.65499997
-0.13258043 -0.11932077 -0.65399998
-0.13134499 -0.11932077 -0.65399998
-0.13010955 -0.11932077 -0.65399998
-0.12867706 -0.11913832 -0.653
-0.12744349 -0.11913832 -0.653
-0.12620994 -0.11913832 -0.653
-0.1249764 -0.11913832 -0.653
-0.12374284 -0.11913832 -0.653
-0.12250929 -0.11913832 -0.653
-0.12146145 -0.11932077 -0.65399998
-0.12022601 -0.11932077 -0.65399998
-0.11899057 -0.11932077 -0.65399998
-0.11793518 -0.11950321 -0.65499997
-0.11669785 -0.11950321 -0.65499997
-0.11546052 -0.11950321 -0.65499997
-0.11457197 -0.11986812 -0.65700001
-0.11333086 -0.11986812 -0.65700001
-0.11226036 -0.12005056 -0.65799999
-0.11101735 -0.12005056 -0.65799999
-0.10977436 -0.12005056 -0.65799999
-0.1086963 -0.12023301 -0.65899998
-0.10745141 -0.12023301 -0.65899998
-0.10620652 -0.12023301 -0.65899998
-0.10496163 -0.12023301 -0.65899998
-0.10371675 -0.12023301 -0.65899998
-0.10247187 -0.12023301 -0.65899998
-0.10122698 -0.12023301 -0.65899998
-0.09998209 -0.12023301 -0.65899998
-0.098737203 -0.12023301 -0.65899998
-0.097640261 -0.12041546 -0.66000003
-0.096393488 -0.12041546 -0.66000003
-0.095146708 -0.12041546 -0.66000003
-0.093899935 -0.12041546 -0.66000003
-0.092653155 -0.12041546 -0.66000003
-0.091406383 -0.12041546 -0.66000003
-0.090159602 -0.12041546 -0.66000003
-0.08891283 -0.12041546 -0.66000003
-0.08766605 -0.12041546 -0.66000003
-0.08668115 -0.12078036 -0.662
-0.085430592 -0.12078036 -0.662
-0.084180042 -0.12078036 -0.662
-0.082929485 -0.12078036 -0.662
-0.081678934 -0.12078036 -0.662
-0.080549866 -0.1209628 -0.66299999
-0.079417028 -0.12114525 -0.66399997
-0.078162692 -0.12114525 -0.66399997
-0.077140018 -0.12151015 -0.66600001
-0.075881906 -0.12151015 -0.66600001
-0.074623801 -0.12151015 -0.66600001
-0.073365688 -0.12151015 -0.66600001
-0.072215848 -0.12169259 -0.667
-0.070955843 -0.12169259 -0.667
-0.069695845 -0.12169259 -0.667
-0.06853845 -0.12187504 -0.66799998
-0.13773248 -0.1207148 -0.65499997
-0.13649514 -0.1207148 -0.65499997
-0.13525781 -0.1207148 -0.65499997
-0.13402048 -0.1207148 -0.65499997
-0.13278314 -0.1207148 -0.65499997
-0.13134499 -0.1205305 -0.65399998
-0.13010955 -0.1205305 -0.65399998
-0.12887411 -0.1205305 -0.65399998
-0.12763867 -0.1205305 -0.65399998
-0.12640323 -0.1205305 -0.65399998
-0.12516777 -0.1205305 -0.65399998
-0.12393234 -0.1205305 -0.65399998
-0.12269689 -0.1205305 -0.65399998
-0.12164717 -0.1207148 -0.65499997
-0.12040984 -0.1207148 -0.65499997
-0.11917251 -0.1207148 -0.65499997
-0.11793518 -0.1207148 -0.65499997
-0.11705419 -0.1210834 -0.65700001
-0.11581308 -0.1210834 -0.65700001
-0.11457197 -0.1210834 -0.65700001
-0.11350335 -0.12126769 -0.65799999
-0.11226036 -0.12126769 -0.65799999
-0.11118607 -0.12145199 -0.65899998
-0.10994118 -0.12145199 -0.65899998
-0.1086963 -0.12145199 -0.65899998
-0.10745141 -0.12145199 -0.65899998
-0.10620652 -0.12145199 -0.65899998
-0.10496163 -0.12145199 -0.65899998
-0.10371675 -0.12145199 -0.65899998
-0.10262737 -0.12163629 -0.66000003
-0.10138059 -0.12163629 -0.66000003
-0.10013381 -0.12163629 -0.66000003
-0.098887041 -0.12163629 -0.66000003
-0.097640261 -0.12163629 -0.66000003
-0.096393488 -0.12163629 -0.66000003
-0.095435031 -0.12200488 -0.662
-0.094184473 -0.12200488 -0.662
-0.092933923 -0.12200488 -0.662
-0.091683365 -0.12200488 -0.662
-0.090432815 -0.12200488 -0.662
-0.089182258 -0.12200488 -0.662
-0.0879317 -0.12200488 -0.662
-0.08668115 -0.12200488 -0.662
-0.085430592 -0.12200488 -0.662
-0.084307201 -0.12218918 -0.66299999
-0.083054759 -0.12218918 -0.66299999
-0.08192569 -0.12237348 -0.66399997
-0.080671363 -0.12237348 -0.66399997
-0.079656243 -0.12274207 -0.66600001
-0.078398131 -0.12274207 -0.66600001
-0.077140018 -0.12274207 -0.66600001
-0.075881906 -0.12274207 -0.66600001
-0.074735843 -0.12292637 -0.667
-0.073475845 -0.12292637 -0.667
-0.072215848 -0.12292637 -0.667
-0.071062222 -0.12311067 -0.66799998
-0.06980034 -0.12311067 -0.66799998
-0.068743654 -0.12347927 -0.67000002
-0.067578703 -0.12366356 -0.671
-0.13773248 -0.12192637 -0.65499997
-0.13649514 -0.12192637 -0.65499997
-0.13525781 -0.12192637 -0.65499997
-0.13402048 -0.12192637 -0.65499997
-0.13278314 -0.12192637 -0.65499997
-0.13154581 -0.12192637 -0.65499997
-0.13030849 -0.12192637 -0.65499997
-0.12907116 -0.12192637 -0.65499997
-0.12783383 -0.12192637 -0.65499997
-0.1265965 -0.12192637 -0.65499997
-0.12535916 -0.12192637 -0.65499997
-0.12412183 -0.12192637 -0.65499997
-0.1228845 -0.12192637 -0.65499997
-0.12164717 -0.12192637 -0.65499997
-0.12077751 -0.12229868 -0.65700001
-0.1195364 -0.12229868 -0.65700001
-0.11829529 -0.12229868 -0.65700001
-0.11705419 -0.12229868 -0.65700001
-0.11581308 -0.12229868 -0.65700001
-0.11474635 -0.12248482 -0.65799999
-0.11350335 -0.12248482 -0.65799999
-0.11243096 -0.12267096 -0.65899998
-0.11118607 -0.12267096 -0.65899998
-0.10994118 -0.12267096 -0.65899998
-0.1086963 -0.12267096 -0.65899998
-0.10761447 -0.12285712 -0.66000003
-0.10636769 -0.12285712 -0.66000003
-0.10512092 -0.12285712 -0.66000003
-0.10387414 -0.12285712 -0.66000003
-0.10262737 -0.12285712 -0.66000003
-0.10138059 -0.12285712 -0.66000003
-0.10013381 -0.12285712 -0.66000003
-0.099186689 -0.12322941 -0.662
-0.097936139 -0.12322941 -0.662
-0.096685581 -0.12322941 -0.662
-0.095435031 -0.12322941 -0.662
-0.094184473 -0.12322941 -0.662
-0.092933923 -0.12322941 -0.662
-0.091821857 -0.12341556 -0.66299999
-0.090569414 -0.12341556 -0.66299999
-0.089316972 -0.12341556 -0.66299999
-0.088064529 -0.12341556 -0.66299999
-0.086943023 -0.1236017 -0.66399997
-0.085688688 -0.1236017 -0.66399997
-0.08443436 -0.1236017 -0.66399997
-0.083430573 -0.123974 -0.66600001
-0.082172461 -0.123974 -0.66600001
-0.080914348 -0.123974 -0.66600001
-0.079656243 -0.123974 -0.66600001
-0.078515843 -0.12416015 -0.667
-0.077255845 -0.12416015 -0.667
-0.07599584 -0.12416015 -0.667
-0.074735843 -0.12416015 -0.667
-0.073586002 -0.12434629 -0.66799998
-0.072324112 -0.12434629 -0.66799998
-0.071062222 -0.12434629 -0.66799998
-0.070009321 -0.12471859 -0.67000002
-0.068846256 -0.12490474 -0.671
-0.067578703 -0.12490474 -0.671
-0.066508792 -0.12527703 -0.67299998
-0.13773248 -0.12313796 -0.65499997
-0.13649514 -0.12313796 -0.65499997
-0.13525781 -0.12313796 -0.65499997
-0.13402048 -0.12313796 -0.65499997
-0.13278314 -0.12313796 -0.65499997
-0.13154581 -0.12313796 -0.65499997
-0.13030849 -0.12313796 -0.65499997
-0.12907116 -0.12313796 -0.65499997
-0.12783383 -0.12313796 -0.65499997
-0.1265965 -0.12313796 -0.65499997
-0.12535916 -0.12313796 -0.65499997
-0.12412183 -0.12313796 -0.65499997
-0.1228845 -0.12313796 -0.65499997
-0.12201862 -0.12351396 -0.65700001
-0.12077751 -0.12351396 -0.65700001
-0.1195364 -0.12351396 -0.65700001
-0.11847534 -0.12370195 -0.65799999
-0.11723235 -0.12370195 -0.65799999
-0.11598935 -0.12370195 -0.65799999
-0.11492074 -0.12388995 -0.65899998
-0.11367585 -0.12388995 -0.65899998
-0.11243096 -0.12388995 -0.65899998
-0.11118607 -0.12388995 -0.65899998
-0.11010803 -0.12407795 -0.66000003
-0.10886125 -0.12407795 -0.66000003
-0.10761447 -0.12407795 -0.66000003
-0.10636769 -0.12407795 -0.66000003
-0.10512092 -0.12407795 -0.66000003
-0.10387414 -0.12407795 -0.66000003
-0.10293835 -0.12445394 -0.662
-0.1016878 -0.12445394 -0.662
-0.10043725 -0.12445394 -0.662
-0.099186689 -0.12445394 -0.662
-0.098084077 -0.12464193 -0.66299999
-0.096831635 -0.12464193 -0.66299999
-0.095579192 -0.12464193 -0.66299999
-0.094326742 -0.12464193 -0.66299999
-0.093074299 -0.12464193 -0.66299999
-0.091960348 -0.12482993 -0.66399997
-0.090706021 -0.12482993 -0.66399997
-0.089451686 -0.12482993 -0.66399997
-0.088463016 -0.12520593 -0.66600001
-0.087204903 -0.12520593 -0.66600001
-0.085946791 -0.12520593 -0.66600001
-0.084688678 -0.12520593 -0.66600001
-0.08355584 -0.12539393 -0.667
-0.082295842 -0.12539393 -0.667
-0.081035845 -0.12539393 -0.667
-0.07977584 -0.12539393 -0.667
-0.078515843 -0.12539393 -0.667
-0.077371664 -0.12558192 -0.66799998
-0.076109782 -0.12558192 -0.66799998
-0.074847892 -0.12558192 -0.66799998
-0.073586002 -0.12558192 -0.66799998
-0.072540656 -0.12595792 -0.67000002
-0.071274988 -0.12595792 -0.67000002
-0.070113815 -0.12614591 -0.671
-0.068846256 -0.12614591 -0.671
-0.067679413 -0.12633391 -0.67199999
-0.066508792 -0.1265219 -0.67299998
-0.065431334 -0.1268979 -0.67500001
-0.064251266 -0.12708589 -0.676
-0.13773248 -0.12434953 -0.65499997
-0.13649514 -0.12434953 -0.65499997
-0.13525781 -0.12434953 -0.65499997
-0.13402048 -0.12434953 -0.65499997
-0.13278314 -0.12434953 -0.65499997
-0.13154581 -0.12434953 -0.65499997
-0.13030849 -0.12434953 -0.65499997
-0.12946527 -0.12472924 -0.65700001
-0.12822416 -0.12472924 -0.65700001
-0.12698306 -0.12472924 -0.65700001
-0.12574194 -0.12472924 -0.65700001
-0.12450084 -0.12472924 -0.65700001
-0.12325973 -0.12472924 -0.65700001
-0.12220434 -0.12491908 -0.65799999
-0.12096134 -0.12491908 -0.65799999
-0.11971834 -0.12491908 -0.65799999
-0.1186554 -0.12510893 -0.65899998
-0.11741051 -0.12510893 -0.65899998
-0.11616562 -0.12510893 -0.65899998
-0.11492074 -0.12510893 -0.65899998
-0.11384835 -0.12529878 -0.66000003
-0.11260158 -0.12529878 -0.66000003
-0.1113548 -0.12529878 -0.66000003
-0.11010803 -0.12529878 -0.66000003
-0.10886125 -0.12529878 -0.66000003
-0.10761447 -0.12529878 -0.66000003
-0.10636769 -0.12529878 -0.66000003
-0.10543946 -0.12567846 -0.662
-0.10418891 -0.12567846 -0.662
-0.10293835 -0.12567846 -0.662
-0.1016878 -0.12567846 -0.662
-0.10058896 -0.12586831 -0.66299999
-0.099486344 -0.12605816 -0.66399997
-0.098232016 -0.12605816 -0.66399997
-0.096977681 -0.12605816 -0.66399997
-0.095723346 -0.12605816 -0.66399997
-0.094469018 -0.12605816 -0.66399997
-0.093495458 -0.12643786 -0.66600001
-0.092237346 -0.12643786 -0.66600001
-0.090979233 -0.12643786 -0.66600001
-0.089721121 -0.12643786 -0.66600001
-0.088463016 -0.12643786 -0.66600001
-0.08733584 -0.1266277 -0.667
-0.086075842 -0.1266277 -0.667
-0.084815837 -0.1266277 -0.667
-0.08355584 -0.1266277 -0.667
-0.082295842 -0.1266277 -0.667
-0.081157334 -0.12681754 -0.66799998
-0.079895444 -0.12681754 -0.66799998
-0.078633554 -0.12681754 -0.66799998
-0.077603325 -0.12719725 -0.67000002
-0.076337658 -0.12719725 -0.67000002
-0.07507199 -0.12719725 -0.67000002
-0.073806323 -0.12719725 -0.67000002
-0.072540656 -0.12719725 -0.67000002
-0.071381368 -0.12738709 -0.671
-0.070113815 -0.12738709 -0.671
-0.068948857 -0.12757693 -0.67199999
-0.067780122 -0.12776677 -0.67299998
-0.066706441 -0.12814647 -0.67500001
-0.065528266 -0.12833633 -0.676
-0.064251266 -0.12833633 -0.676
-0.062974267 -0.12833633 -0.676
-0.13960631 -0.12613621 -0.65799999
-0.13815303 -0.12594451 -0.65700001
-0.13649514 -0.12556112 -0.65499997
-0.13525781 -0.12556112 -0.65499997
-0.13402048 -0.12556112 -0.65499997
-0.13278314 -0.12556112 -0.65499997
-0.13154581 -0.12556112 -0.65499997
-0.13070638 -0.12594451 -0.65700001
-0.12946527 -0.12594451 -0.65700001
-0.12822416 -0.12594451 -0.65700001
-0.12698306 -0.12594451 -0.65700001
-0.12574194 -0.12594451 -0.65700001
-0.12450084 -0.12594451 -0.65700001
-0.12344734 -0.12613621 -0.65799999
-0.12239005 -0.1263279 -0.65899998
-0.12114517 -0.1263279 -0.65899998
-0.11990028 -0.1263279 -0.65899998
-0.1186554 -0.1263279 -0.65899998
-0.11758868 -0.12651961 -0.66000003
-0.1163419 -0.12651961 -0.66000003
-0.11509513 -0.12651961 -0.66000003
-0.11384835 -0.12651961 -0.66000003
-0.11260158 -0.12651961 -0.66000003
-0.1113548 -0.12651961 -0.66000003
-0.11010803 -0.12651961 -0.66000003
-0.10886125 -0.12651961 -0.66000003
-0.10794057 -0.126903 -0.662
-0.10669002 -0.126903 -0.662
-0.10543946 -0.126903 -0.662
-0.10418891 -0.126903 -0.662
-0.10309385 -0.12709469 -0.66299999
-0.10199501 -0.12728639 -0.66399997
-0.10074068 -0.12728639 -0.66399997
-0.099786006 -0.12766978 -0.66600001
-0.098527901 -0.12766978 -0.66600001
-0.097269788 -0.12766978 -0.66600001
-0.096011676 -0.12766978 -0.66600001
-0.094753563 -0.12766978 -0.66600001
-0.093495458 -0.12766978 -0.66600001
-0.092375837 -0.12786147 -0.667
-0.09111584 -0.12786147 -0.667
-0.089855842 -0.12786147 -0.667
-0.088595837 -0.12786147 -0.667
-0.08733584 -0.12786147 -0.667
-0.086075842 -0.12786147 -0.667
-0.084942997 -0.12805317 -0.66799998
-0.083681114 -0.12805317 -0.66799998
-0.082419224 -0.12805317 -0.66799998
-0.08140032 -0.12843657 -0.67000002
-0.08013466 -0.12843657 -0.67000002
-0.078868993 -0.12843657 -0.67000002
-0.077603325 -0.12843657 -0.67000002
-0.076451592 -0.12862827 -0.671
-0.075184032 -0.12862827 -0.671
-0.07391648 -0.12862827 -0.671
-0.072648928 -0.12862827 -0.671
-0.071487747 -0.12881996 -0.67199999
-0.070218302 -0.12881996 -0.67199999
-0.068948857 -0.12881996 -0.67199999
-0.067780122 -0.12901165 -0.67299998
-0.066706441 -0.12939505 -0.67500001
-0.065528266 -0.12958674 -0.676
-0.064251266 -0.12958674 -0.676
-0.062974267 -0.12958674 -0.676
-0.061697263 -0.12958674 -0.676
-0.14170554 -0.12812753 -0.662
-0.13960631 -0.12735334 -0.65799999
-0.13815303 -0.12715979 -0.65700001
-0.13691193 -0.12715979 -0.65700001
-0.13567083 -0.12715979 -0.65700001
-0.13442971 -0.12715979 -0.65700001
-0.13318861 -0.12715979 -0.65700001
-0.13194749 -0.12715979 -0.65700001
-0.13070638 -0.12715979 -0.65700001
-0.12946527 -0.12715979 -0.65700001
-0.12841932 -0.12735334 -0.65799999
-0.12717633 -0.12735334 -0.65799999
-0.12593333 -0.12735334 -0.65799999
-0.12469033 -0.12735334 -0.65799999
-0.12363494 -0.12754688 -0.65899998
-0.12257579 -0.12774044 -0.66000003
-0.12132901 -0.12774044 -0.66000003
-0.12008224 -0.12774044 -0.66000003
-0.11883546 -0.12774044 -0.66000003
-0.11758868 -0.12774044 -0.66000003
-0.1163419 -0.12774044 -0.66000003
-0.11509513 -0.12774044 -0.66000003
-0.11384835 -0.12774044 -0.66000003
-0.11294279 -0.12812753 -0.662
-0.11169223 -0.12812753 -0.662
-0.11044168 -0.12812753 -0.662
-0.10919113 -0.12812753 -0.662
-0.10794057 -0.12812753 -0.662
-0.10685118 -0.12832107 -0.66299999
-0.10559873 -0.12832107 -0.66299999
-0.10434629 -0.12832107 -0.66299999
-0.10324934 -0.12851462 -0.66399997
-0.10230223 -0.12890171 -0.66600001
-0.10104412 -0.12890171 -0.66600001
-0.099786006 -0.12890171 -0.66600001
-0.098527901 -0.12890171 -0.66600001
-0.097269788 -0.12890171 -0.66600001
-0.096011676 -0.12890171 -0.66600001
-0.09489584 -0.12909526 -0.667
-0.093635835 -0.12909526 -0.667
-0.092375837 -0.12909526 -0.667
-0.09111584 -0.12909526 -0.667
-0.089855842 -0.12909526 -0.667
-0.088728666 -0.12928879 -0.66799998
-0.087466776 -0.12928879 -0.66799998
-0.086204886 -0.12928879 -0.66799998
-0.084942997 -0.12928879 -0.66799998
-0.083931655 -0.12967589 -0.67000002
-0.082665987 -0.12967589 -0.67000002
-0.08140032 -0.12967589 -0.67000002
-0.08013466 -0.12967589 -0.67000002
-0.078986704 -0.12986945 -0.671
-0.077719145 -0.12986945 -0.671
-0.076451592 -0.12986945 -0.671
-0.075184032 -0.12986945 -0.671
-0.07391648 -0.12986945 -0.671
-0.072757192 -0.13006298 -0.67199999
-0.071487747 -0.13006298 -0.67199999
-0.070322797 -0.13025653 -0.67299998
-0.069051459 -0.13025653 -0.67299998
-0.067981556 -0.13064362 -0.67500001
-0.066805266 -0.13083717 -0.676
-0.065528266 -0.13083717 -0.676
-0.064251266 -0.13083717 -0.676
-0.063067421 -0.13103071 -0.67699999
-0.061788529 -0.13103071 -0.67699999
-0.060509641 -0.13103071 -0.67699999
-0.14170554 -0.12935205 -0.662
-0.14003065 -0.12896127 -0.66000003
-0.13836332 -0.12857047 -0.65799999
-0.13691193 -0.12837507 -0.65700001
-0.13567083 -0.12837507 -0.65700001
-0.13442971 -0.12837507 -0.65700001
-0.13318861 -0.12837507 -0.65700001
-0.13194749 -0.12837507 -0.65700001
-0.13090533 -0.12857047 -0.65799999
-0.12966232 -0.12857047 -0.65799999
-0.12841932 -0.12857047 -0.65799999
-0.12717633 -0.12857047 -0.65799999
-0.12612472 -0.12876587 -0.65899998
-0.12487983 -0.12876587 -0.65899998
-0.12382256 -0.12896127 -0.66000003
-0.12257579 -0.12896127 -0.66000003
-0.12132901 -0.12896127 -0.66000003
-0.12008224 -0.12896127 -0.66000003
-0.11883546 -0.12896127 -0.66000003
-0.11794501 -0.12935205 -0.662
-0.11669445 -0.12935205 -0.662
-0.1154439 -0.12935205 -0.662
-0.11419334 -0.12935205 -0.662
-0.11294279 -0.12935205 -0.662
-0.11169223 -0.12935205 -0.662
-0.11060851 -0.12954745 -0.66299999
-0.10935607 -0.12954745 -0.66299999
-0.10810363 -0.12954745 -0.66299999
-0.10685118 -0.12954745 -0.66299999
-0.105758 -0.12974283 -0.66399997
-0.10450368 -0.12974283 -0.66399997
-0.10356034 -0.13013364 -0.66600001
-0.10245583 -0.13032903 -0.667
-0.10119583 -0.13032903 -0.667
-0.099935837 -0.13032903 -0.667
-0.098675832 -0.13032903 -0.667
-0.097415835 -0.13032903 -0.667
-0.096155837 -0.13032903 -0.667
-0.095038109 -0.13052443 -0.66799998
-0.093776219 -0.13052443 -0.66799998
-0.092514329 -0.13052443 -0.66799998
-0.091252439 -0.13052443 -0.66799998
-0.089990556 -0.13052443 -0.66799998
-0.088994324 -0.13091522 -0.67000002
-0.087728657 -0.13091522 -0.67000002
-0.086462989 -0.13091522 -0.67000002
-0.085197322 -0.13091522 -0.67000002
-0.084056929 -0.13111061 -0.671
-0.082789369 -0.13111061 -0.671
-0.081521817 -0.13111061 -0.671
-0.080254257 -0.13111061 -0.671
-0.078986704 -0.13111061 -0.671
-0.077719145 -0.13111061 -0.671
-0.076565526 -0.13130601 -0.67199999
-0.075296082 -0.13130601 -0.67199999
-0.074026637 -0.13130601 -0.67199999
-0.072757192 -0.13130601 -0.67199999
-0.071594127 -0.13150141 -0.67299998
-0.070322797 -0.13150141 -0.67299998
-0.069256671 -0.1318922 -0.67500001
-0.068082266 -0.13208759 -0.676
-0.066805266 -0.13208759 -0.676
-0.065528266 -0.13208759 -0.676
-0.064346306 -0.13228299 -0.67699999
-0.063067421 -0.13228299 -0.67699999
-0.061788529 -0.13228299 -0.67699999
-0.060509641 -0.13228299 -0.67699999
-0.14996983 -0.13235179 -0.671
-0.14870228 -0.13235179 -0.671
-0.14743471 -0.13235179 -0.671
-0.14616716 -0.13235179 -0.671
-0.14403582 -0.13156281 -0.667
-0.1419196 -0.13077383 -0.66299999
-0.14003065 -0.13018209 -0.66000003
-0.13878387 -0.13018209 -0.66000003
-0.13712032 -0.12978759 -0.65799999
-0.13587731 -0.12978759 -0.65799999
-0.13463432 -0.12978759 -0.65799999
-0.13339132 -0.12978759 -0.65799999
-0.13214833 -0.12978759 -0.65799999
-0.13110426 -0.12998484 -0.65899998
-0.12985937 -0.12998484 -0.65899998
-0.12861449 -0.12998484 -0.65899998
-0.1273696 -0.12998484 -0.65899998
-0.12612472 -0.12998484 -0.65899998
-0.12506934 -0.13018209 -0.66000003
-0.12382256 -0.13018209 -0.66000003
-0.12257579 -0.13018209 -0.66000003
-0.12169667 -0.13057658 -0.662
-0.12044612 -0.13057658 -0.662
-0.11919556 -0.13057658 -0.662
-0.11794501 -0.13057658 -0.662
-0.11669445 -0.13057658 -0.662
-0.1154439 -0.13057658 -0.662
-0.11436584 -0.13077383 -0.66299999
-0.1131134 -0.13077383 -0.66299999
-0.11186095 -0.13077383 -0.66299999
-0.11060851 -0.13077383 -0.66299999
-0.10935607 -0.13077383 -0.66299999
-0.10826667 -0.13097106 -0.66399997
-0.10701234 -0.13097106 -0.66399997
-0.10607656 -0.13136557 -0.66600001
-0.10481845 -0.13136557 -0.66600001
-0.10371584 -0.13156281 -0.667
-0.10245583 -0.13156281 -0.667
-0.10119583 -0.13156281 -0.667
-0.10008566 -0.13176005 -0.66799998
-0.098823771 -0.13176005 -0.66799998
-0.097561888 -0.13176005 -0.66799998
-0.096588321 -0.13215455 -0.67000002
-0.095322661 -0.13215455 -0.67000002
-0.094056994 -0.13215455 -0.67000002
-0.092791326 -0.13215455 -0.67000002
-0.091525659 -0.13215455 -0.67000002
-0.090259992 -0.13215455 -0.67000002
-0.089127153 -0.13235179 -0.671
-0.087859593 -0.13235179 -0.671
-0.086592041 -0.13235179 -0.671
-0.085324481 -0.13235179 -0.671
-0.084056929 -0.13235179 -0.671
-0.082789369 -0.13235179 -0.671
-0.081521817 -0.13235179 -0.671
-0.080254257 -0.13235179 -0.671
-0.079104416 -0.13254903 -0.67199999
-0.077834971 -0.13254903 -0.67199999
-0.076565526 -0.13254903 -0.67199999
-0.075296082 -0.13254903 -0.67199999
-0.074026637 -0.13254903 -0.67199999
-0.072865464 -0.13274628 -0.67299998
-0.071806893 -0.13314077 -0.67500001
-0.070531778 -0.13314077 -0.67500001
-0.069359265 -0.13333802 -0.676
-0.068082266 -0.13333802 -0.676
-0.06690409 -0.13353527 -0.67699999
-0.065625198 -0.13353527 -0.67699999
-0.064346306 -0.13353527 -0.67699999
-0.063067421 -0.13353527 -0.67699999
-0.061788529 -0.13353527 -0.67699999
-0.060509641 -0.13353527 -0.67699999
-0.15123738 -0.13359296 -0.671
-0.14996983 -0.13359296 -0.671
-0.14870228 -0.13359296 -0.671
-0.14721499 -0.13339387 -0.67000002
-0.14551365 -0.13299568 -0.66799998
-0.14381988 -0.13259749 -0.66600001
-0.1419196 -0.13200021 -0.66299999
-0.14045498 -0.13180111 -0.662
-0.13878387 -0.13140292 -0.66000003
-0.13753711 -0.13140292 -0.66000003
-0.13608381 -0.13120382 -0.65899998
-0.13483892 -0.13120382 -0.65899998
-0.13359404 -0.13120382 -0.65899998
-0.13234915 -0.13120382 -0.65899998
-0.13130322 -0.13140292 -0.66000003
-0.13005644 -0.13140292 -0.66000003
-0.12880966 -0.13140292 -0.66000003
-0.1275629 -0.13140292 -0.66000003
-0.12631612 -0.13140292 -0.66000003
-0.12506934 -0.13140292 -0.66000003
-0.12419778 -0.13180111 -0.662
-0.12294722 -0.13180111 -0.662
-0.12169667 -0.13180111 -0.662
-0.12044612 -0.13180111 -0.662
-0.11937561 -0.13200021 -0.66299999
-0.11812317 -0.13200021 -0.66299999
-0.11687072 -0.13200021 -0.66299999
-0.11561828 -0.13200021 -0.66299999
-0.11436584 -0.13200021 -0.66299999
-0.1131134 -0.13200021 -0.66299999
-0.11186095 -0.13200021 -0.66299999
-0.11077534 -0.13219929 -0.66399997
-0.109521 -0.13219929 -0.66399997
-0.10826667 -0.13219929 -0.66399997
-0.10733467 -0.13259749 -0.66600001
-0.10607656 -0.13259749 -0.66600001
-0.10497583 -0.13279659 -0.667
-0.10371584 -0.13279659 -0.667
-0.10260944 -0.13299568 -0.66799998
-0.10134755 -0.13299568 -0.66799998
-0.10038532 -0.13339387 -0.67000002
-0.099119656 -0.13339387 -0.67000002
-0.097853988 -0.13339387 -0.67000002
-0.096732482 -0.13359296 -0.671
-0.09546493 -0.13359296 -0.671
-0.09419737 -0.13359296 -0.671
-0.092929818 -0.13359296 -0.671
-0.091662258 -0.13359296 -0.671
-0.090394706 -0.13359296 -0.671
-0.089127153 -0.13359296 -0.671
-0.087859593 -0.13359296 -0.671
-0.086721085 -0.13379206 -0.67199999
-0.08545164 -0.13379206 -0.67199999
-0.084182195 -0.13379206 -0.67199999
-0.082912751 -0.13379206 -0.67199999
-0.081643306 -0.13379206 -0.67199999
-0.080373861 -0.13379206 -0.67199999
-0.079104416 -0.13379206 -0.67199999
-0.077950798 -0.13399115 -0.67299998
-0.076907337 -0.13438936 -0.67500001
-0.075632229 -0.13438936 -0.67500001
-0.074357115 -0.13438936 -0.67500001
-0.073190272 -0.13458844 -0.676
-0.071913272 -0.13458844 -0.676
-0.070636272 -0.13458844 -0.676
-0.069359265 -0.13458844 -0.676
-0.068182983 -0.13478753 -0.67699999
-0.06690409 -0.13478753 -0.67699999
-0.065625198 -0.13478753 -0.67699999
-0.064536408 -0.13518573 -0.67900002
-0.063253738 -0.13518573 -0.67900002
-0.061971068 -0.13518573 -0.67900002
-0.060688399 -0.13518573 -0.67900002
-0.059405733 -0.13518573 -0.67900002
-0.15123738 -0.13483414 -0.671
-0.14996983 -0.13483414 -0.671
-0.14848067 -0.1346332 -0.67000002
-0.14677554 -0.1342313 -0.66799998
-0.14529581 -0.13403036 -0.667
-0.14381988 -0.13382941 -0.66600001
-0.1419196 -0.13322657 -0.66299999
-0.14066716 -0.13322657 -0.66299999
-0.13920443 -0.13302563 -0.662
-0.13753711 -0.13262375 -0.66000003
-0.13629033 -0.13262375 -0.66000003
-0.13504355 -0.13262375 -0.66000003
-0.13379677 -0.13262375 -0.66000003
-0.13255 -0.13262375 -0.66000003
-0.13130322 -0.13262375 -0.66000003
-0.13005644 -0.13262375 -0.66000003
-0.1292 -0.13302563 -0.662
-0.12794945 -0.13302563 -0.662
-0.12669888 -0.13302563 -0.662
-0.12544833 -0.13302563 -0.662
-0.12419778 -0.13302563 -0.662
-0.12294722 -0.13302563 -0.662
-0.1218805 -0.13322657 -0.66299999
-0.12062805 -0.13322657 -0.66299999
-0.11955566 -0.13342752 -0.66399997
-0.11830133 -0.13342752 -0.66399997
-0.117047 -0.13342752 -0.66399997
-0.11579267 -0.13342752 -0.66399997
-0.11453833 -0.13342752 -0.66399997
-0.113284 -0.13342752 -0.66399997
-0.11202967 -0.13342752 -0.66399997
-0.111109 -0.13382941 -0.66600001
-0.10985089 -0.13382941 -0.66600001
-0.10859278 -0.13382941 -0.66600001
-0.10733467 -0.13382941 -0.66600001
-0.10623583 -0.13403036 -0.667
-0.10513321 -0.1342313 -0.66799998
-0.10418233 -0.1346332 -0.67000002
-0.10291666 -0.1346332 -0.67000002
-0.10165099 -0.1346332 -0.67000002
-0.10053515 -0.13483414 -0.671
-0.099267595 -0.13483414 -0.671
-0.098000042 -0.13483414 -0.671
-0.096732482 -0.13483414 -0.671
-0.095607199 -0.13503508 -0.67199999
-0.094337754 -0.13503508 -0.67199999
-0.093068309 -0.13503508 -0.67199999
-0.091662258 -0.13483414 -0.671
-0.090394706 -0.13483414 -0.671
-0.089259975 -0.13503508 -0.67199999
-0.08799053 -0.13503508 -0.67199999
-0.086721085 -0.13503508 -0.67199999
-0.08545164 -0.13503508 -0.67199999
-0.084307462 -0.13523602 -0.67299998
-0.083036132 -0.13523602 -0.67299998
-0.081764795 -0.13523602 -0.67299998
-0.080493465 -0.13523602 -0.67299998
-0.079457566 -0.13563792 -0.67500001
-0.078182451 -0.13563792 -0.67500001
-0.077021278 -0.13583887 -0.676
-0.075744271 -0.13583887 -0.676
-0.074467272 -0.13583887 -0.676
-0.073298544 -0.13603981 -0.67699999
-0.072019652 -0.13603981 -0.67699999
-0.070740759 -0.13603981 -0.67699999
-0.069461867 -0.13603981 -0.67699999
-0.068384409 -0.13644171 -0.67900002
-0.067101739 -0.13644171 -0.67900002
-0.065819077 -0.13644171 -0.67900002
-0.064631447 -0.13664265 -0.68000001
-0.063346893 -0.13664265 -0.68000001
-0.062062334 -0.13664265 -0.68000001
-0.060688399 -0.13644171 -0.67900002
-0.059405733 -0.13644171 -0.67900002
-0.058208663 -0.13664265 -0.68000001
-0.15123738 -0.13607532 -0.671
-0.14929932 -0.13546693 -0.66799998
-0.14803743 -0.13546693 -0.66799998
-0.14655581 -0.13526414 -0.667
-0.14529581 -0.13526414 -0.667
-0.14381988 -0.13506134 -0.66600001
-0.14213364 -0.13465574 -0.66399997
-0.14066716 -0.13445295 -0.66299999
-0.1394147 -0.13445295 -0.66299999
-0.13795388 -0.13425016 -0.662
-0.13670333 -0.13425016 -0.662
-0.13504355 -0.13384458 -0.66000003
-0.13379677 -0.13384458 -0.66000003
-0.13295166 -0.13425016 -0.662
-0.1317011 -0.13425016 -0.662
-0.13045055 -0.13425016 -0.662
-0.1292 -0.13425016 -0.662
-0.12794945 -0.13425016 -0.662
-0.12689027 -0.13445295 -0.66299999
-0.12563783 -0.13445295 -0.66299999
-0.12438539 -0.13445295 -0.66299999
-0.12313294 -0.13445295 -0.66299999
-0.12206433 -0.13465574 -0.66399997
-0.12080999 -0.13465574 -0.66399997
-0.11955566 -0.13465574 -0.66399997
-0.11865766 -0.13506134 -0.66600001
-0.11739956 -0.13506134 -0.66600001
-0.11614145 -0.13506134 -0.66600001
-0.11488333 -0.13506134 -0.66600001
-0.11362522 -0.13506134 -0.66600001
-0.11236712 -0.13506134 -0.66600001
-0.11127583 -0.13526414 -0.667
-0.11001583 -0.13526414 -0.667
-0.10875583 -0.13526414 -0.667
-0.10749583 -0.13526414 -0.667
-0.1063951 -0.13546693 -0.66799998
-0.10544799 -0.13587253 -0.67000002
-0.10433782 -0.13607532 -0.671
-0.10307027 -0.13607532 -0.671
-0.10180271 -0.13607532 -0.671
-0.10053515 -0.13607532 -0.671
-0.099267595 -0.13607532 -0.671
-0.098146088 -0.13627811 -0.67199999
-0.096876644 -0.13627811 -0.67199999
-0.095607199 -0.13627811 -0.67199999
-0.094337754 -0.13627811 -0.67199999
-0.093068309 -0.13627811 -0.67199999
-0.091798864 -0.13627811 -0.67199999
-0.090529419 -0.13627811 -0.67199999
-0.089259975 -0.13627811 -0.67199999
-0.088121466 -0.1364809 -0.67299998
-0.086850137 -0.1364809 -0.67299998
-0.085578799 -0.1364809 -0.67299998
-0.08455801 -0.13688649 -0.67500001
-0.083282903 -0.13688649 -0.67500001
-0.082007788 -0.13688649 -0.67500001
-0.080732673 -0.13688649 -0.67500001
-0.079575278 -0.1370893 -0.676
-0.078298278 -0.1370893 -0.676
-0.077021278 -0.1370893 -0.676
-0.075856321 -0.13729209 -0.67699999
-0.074577428 -0.13729209 -0.67699999
-0.073298544 -0.13729209 -0.67699999
-0.072019652 -0.13729209 -0.67699999
-0.070949748 -0.13769768 -0.67900002
-0.069769681 -0.13790047 -0.68000001
-0.068485126 -0.13790047 -0.68000001
-0.067200564 -0.13790047 -0.68000001
-0.065916009 -0.13790047 -0.68000001
-0.064821541 -0.13830605 -0.68199998
-0.063533202 -0.13830605 -0.68199998
-0.06224487 -0.13830605 -0.68199998
-0.06077778 -0.13790047 -0.68000001
-0.059493221 -0.13790047 -0.68000001
-0.058379862 -0.13830605 -0.68199998
-0.1505612 -0.13670255 -0.66799998
-0.14907582 -0.13649791 -0.667
-0.14781582 -0.13649791 -0.667
-0.14655581 -0.13649791 -0.667
-0.14507799 -0.13629328 -0.66600001
-0.14381988 -0.13629328 -0.66600001
-0.14213364 -0.13588397 -0.66399997
-0.14087932 -0.13588397 -0.66399997
-0.13962498 -0.13588397 -0.66399997
-0.13816226 -0.13567933 -0.66299999
-0.13690981 -0.13567933 -0.66299999
-0.13545276 -0.1354747 -0.662
-0.13420221 -0.1354747 -0.662
-0.13295166 -0.1354747 -0.662
-0.13190004 -0.13567933 -0.66299999
-0.1306476 -0.13567933 -0.66299999
-0.12939516 -0.13567933 -0.66299999
-0.12833598 -0.13588397 -0.66399997
-0.12708166 -0.13588397 -0.66399997
-0.12582733 -0.13588397 -0.66399997
-0.12457299 -0.13588397 -0.66399997
-0.12331866 -0.13588397 -0.66399997
-0.122432 -0.13629328 -0.66600001
-0.12117389 -0.13629328 -0.66600001
-0.11991578 -0.13629328 -0.66600001
-0.11865766 -0.13629328 -0.66600001
-0.11739956 -0.13629328 -0.66600001
-0.11614145 -0.13629328 -0.66600001
-0.11488333 -0.13629328 -0.66600001
-0.11362522 -0.13629328 -0.66600001
-0.11253583 -0.13649791 -0.667
-0.11127583 -0.13649791 -0.667
-0.11018077 -0.13670255 -0.66799998
-0.10891888 -0.13670255 -0.66799998
-0.10797933 -0.13711186 -0.67000002
-0.10671366 -0.13711186 -0.67000002
-0.10560537 -0.1373165 -0.671
-0.10449331 -0.13752113 -0.67199999
-0.10322387 -0.13752113 -0.67199999
-0.10195442 -0.13752113 -0.67199999
-0.10068498 -0.13752113 -0.67199999
-0.099415533 -0.13752113 -0.67199999
-0.098146088 -0.13752113 -0.67199999
-0.097020805 -0.13772577 -0.67299998
-0.095749468 -0.13772577 -0.67299998
-0.094478138 -0.13772577 -0.67299998
-0.093206801 -0.13772577 -0.67299998
-0.091935471 -0.13772577 -0.67299998
-0.090664133 -0.13772577 -0.67299998
-0.089392804 -0.13772577 -0.67299998
-0.088121466 -0.13772577 -0.67299998
-0.08710824 -0.13813508 -0.67500001
-0.085833125 -0.13813508 -0.67500001
-0.084683284 -0.13833971 -0.676
-0.083406277 -0.13833971 -0.676
-0.082129277 -0.13833971 -0.676
-0.080852278 -0.13833971 -0.676
-0.07969299 -0.13854435 -0.67699999
-0.078414097 -0.13854435 -0.67699999
-0.077135213 -0.13854435 -0.67699999
-0.076080419 -0.13895366 -0.67900002
-0.07479775 -0.13895366 -0.67900002
-0.07351508 -0.13895366 -0.67900002
-0.072232418 -0.13895366 -0.67900002
-0.071054235 -0.13915829 -0.68000001
-0.069974884 -0.13956758 -0.68199998
-0.068686545 -0.13956758 -0.68199998
-0.067398213 -0.13956758 -0.68199998
-0.066109873 -0.13956758 -0.68199998
-0.064821541 -0.13956758 -0.68199998
-0.063533202 -0.13956758 -0.68199998
-0.06224487 -0.13956758 -0.68199998
-0.060956534 -0.13956758 -0.68199998
-0.059668198 -0.13956758 -0.68199998
-0.05846547 -0.13977224 -0.68300003
-0.15033582 -0.13773169 -0.667
-0.14907582 -0.13773169 -0.667
-0.14781582 -0.13773169 -0.667
-0.14633609 -0.1375252 -0.66600001
-0.14507799 -0.1375252 -0.66600001
-0.14381988 -0.1375252 -0.66600001
-0.14213364 -0.1371122 -0.66399997
-0.14087932 -0.1371122 -0.66399997
-0.13962498 -0.1371122 -0.66399997
-0.13837065 -0.1371122 -0.66399997
-0.13711631 -0.1371122 -0.66399997
-0.13565737 -0.13690571 -0.66299999
-0.13440493 -0.13690571 -0.66299999
-0.13315248 -0.13690571 -0.66299999
-0.13209899 -0.1371122 -0.66399997
-0.13084465 -0.1371122 -0.66399997
-0.12959032 -0.1371122 -0.66399997
-0.12872255 -0.1375252 -0.66600001
-0.12746444 -0.1375252 -0.66600001
-0.12620632 -0.1375252 -0.66600001
-0.12494822 -0.1375252 -0.66600001
-0.12369011 -0.1375252 -0.66600001
-0.122432 -0.1375252 -0.66600001
-0.12135582 -0.13773169 -0.667
-0.12009583 -0.13773169 -0.667
-0.11883583 -0.13773169 -0.667
-0.11757583 -0.13773169 -0.667
-0.11631583 -0.13773169 -0.667
-0.11505583 -0.13773169 -0.667
-0.11396644 -0.13793819 -0.66799998
-0.11270455 -0.13793819 -0.66799998
-0.11177632 -0.13835117 -0.67000002
-0.11051066 -0.13835117 -0.67000002
-0.10924499 -0.13835117 -0.67000002
-0.10814048 -0.13855767 -0.671
-0.10687293 -0.13855767 -0.671
-0.10576276 -0.13876416 -0.67199999
-0.10449331 -0.13876416 -0.67199999
-0.10322387 -0.13876416 -0.67199999
-0.10210614 -0.13897066 -0.67299998
-0.1008348 -0.13897066 -0.67299998
-0.099563472 -0.13897066 -0.67299998
-0.098292135 -0.13897066 -0.67299998
-0.097309135 -0.13938364 -0.67500001
-0.09603402 -0.13938364 -0.67500001
-0.094758905 -0.13938364 -0.67500001
-0.093483798 -0.13938364 -0.67500001
-0.092208683 -0.13938364 -0.67500001
-0.090933569 -0.13938364 -0.67500001
-0.089658462 -0.13938364 -0.67500001
-0.088383347 -0.13938364 -0.67500001
-0.087237284 -0.13959014 -0.676
-0.085960284 -0.13959014 -0.676
-0.084683284 -0.13959014 -0.676
-0.083406277 -0.13959014 -0.676
-0.082250774 -0.13979663 -0.67699999
-0.080971882 -0.13979663 -0.67699999
-0.079928428 -0.14020963 -0.67900002
-0.078645758 -0.14020963 -0.67900002
-0.077477023 -0.14041612 -0.68000001
-0.076192468 -0.14041612 -0.68000001
-0.07512822 -0.1408291 -0.68199998
-0.073839888 -0.1408291 -0.68199998
-0.072551556 -0.1408291 -0.68199998
-0.071263216 -0.1408291 -0.68199998
-0.069974884 -0.1408291 -0.68199998
-0.068686545 -0.1408291 -0.68199998
-0.067398213 -0.1408291 -0.68199998
-0.066206813 -0.1410356 -0.68300003
-0.064916588 -0.1410356 -0.68300003
-0.063626364 -0.1410356 -0.68300003
-0.062336143 -0.1410356 -0.68300003
-0.061045919 -0.1410356 -0.68300003
-0.059755694 -0.1410356 -0.68300003
-0.058551069 -0.1412421 -0.68400002
-0.15033582 -0.13896547 -0.667
-0.14907582 -0.13896547 -0.667
-0.14759421 -0.13875712 -0.66600001
-0.14633609 -0.13875712 -0.66600001
-0.14507799 -0.13875712 -0.66600001
-0.14381988 -0.13875712 -0.66600001
-0.14256176 -0.13875712 -0.66600001
-0.14087932 -0.13834043 -0.66399997
-0.14004554 -0.13875712 -0.66600001
-0.13878743 -0.13875712 -0.66600001
-0.13711631 -0.13834043 -0.66399997
-0.13586198 -0.13834043 -0.66399997
-0.13460766 -0.13834043 -0.66399997
-0.13335332 -0.13834043 -0.66399997
-0.13249688 -0.13875712 -0.66600001
-0.13123877 -0.13875712 -0.66600001
-0.12998065 -0.13875712 -0.66600001
-0.12872255 -0.13875712 -0.66600001
-0.12746444 -0.13875712 -0.66600001
-0.12639582 -0.13896547 -0.667
-0.12513582 -0.13896547 -0.667
-0.12387583 -0.13896547 -0.667
-0.12261583 -0.13896547 -0.667
-0.12153777 -0.13917381 -0.66799998
-0.12027588 -0.13917381 -0.66799998
-0.11937033 -0.1395905 -0.67000002
-0.11810466 -0.1395905 -0.67000002
-0.11683899 -0.1395905 -0.67000002
-0.11557332 -0.1395905 -0.67000002
-0.11447827 -0.13979885 -0.671
-0.11321071 -0.13979885 -0.671
-0.11194316 -0.13979885 -0.671
-0.1106756 -0.13979885 -0.671
-0.10940804 -0.13979885 -0.671
-0.10830165 -0.14000718 -0.67199999
-0.1070322 -0.14000718 -0.67199999
-0.10576276 -0.14000718 -0.67199999
-0.10464881 -0.14021553 -0.67299998
-0.10337748 -0.14021553 -0.67299998
-0.10240958 -0.14063223 -0.67500001
-0.10113447 -0.14063223 -0.67500001
-0.099859357 -0.14063223 -0.67500001
-0.098584242 -0.14063223 -0.67500001
-0.097309135 -0.14063223 -0.67500001
-0.096176289 -0.14084056 -0.676
-0.094899289 -0.14084056 -0.676
-0.09362229 -0.14084056 -0.676
-0.092208683 -0.14063223 -0.67500001
-0.090933569 -0.14063223 -0.67500001
-0.089791283 -0.14084056 -0.676
-0.088514283 -0.14084056 -0.676
-0.087237284 -0.14084056 -0.676
-0.085960284 -0.14084056 -0.676
-0.084808551 -0.14104891 -0.67699999
-0.083529659 -0.14104891 -0.67699999
-0.08249376 -0.1414656 -0.67900002
-0.081330694 -0.14167394 -0.68000001
-0.08004614 -0.14167394 -0.68000001
-0.078761578 -0.14167394 -0.68000001
-0.077704892 -0.14209062 -0.68199998
-0.07641656 -0.14209062 -0.68199998
-0.07512822 -0.14209062 -0.68199998
-0.073839888 -0.14209062 -0.68199998
-0.072551556 -0.14209062 -0.68199998
-0.071367711 -0.14229898 -0.68300003
-0.070077486 -0.14229898 -0.68300003
-0.068787262 -0.14229898 -0.68300003
-0.067497037 -0.14229898 -0.68300003
-0.066206813 -0.14229898 -0.68300003
-0.064916588 -0.14229898 -0.68300003
-0.063626364 -0.14229898 -0.68300003
-0.062427409 -0.14250731 -0.68400002
-0.061135296 -0.14250731 -0.68400002
-0.059843183 -0.14250731 -0.68400002
-0.058722269 -0.142924 -0.68599999
-0.15159582 -0.14019924 -0.667
-0.15033582 -0.14019924 -0.667
-0.14907582 -0.14019924 -0.667
-0.14759421 -0.13998905 -0.66600001
-0.14633609 -0.13998905 -0.66600001
-0.14507799 -0.13998905 -0.66600001
-0.14381988 -0.13998905 -0.66600001
-0.14256176 -0.13998905 -0.66600001
-0.14130366 -0.13998905 -0.66600001
-0.14004554 -0.13998905 -0.66600001
-0.13878743 -0.13998905 -0.66600001
-0.13752933 -0.13998905 -0.66600001
-0.13627121 -0.13998905 -0.66600001
-0.1350131 -0.13998905 -0.66600001
-0.133755 -0.13998905 -0.66600001
-0.13249688 -0.13998905 -0.66600001
-0.13143583 -0.14019924 -0.667
-0.13017583 -0.14019924 -0.667
-0.12891583 -0.14019924 -0.667
-0.12765582 -0.14019924 -0.667
-0.12639582 -0.14019924 -0.667
-0.12532343 -0.14040944 -0.66799998
-0.12406155 -0.14040944 -0.66799998
-0.12279966 -0.14040944 -0.66799998
-0.12190166 -0.14082983 -0.67000002
-0.12063599 -0.14082983 -0.67000002
-0.11954849 -0.14104003 -0.671
-0.11828093 -0.14104003 -0.671
-0.11701338 -0.14104003 -0.671
-0.11574582 -0.14104003 -0.671
-0.11464887 -0.14125021 -0.67199999
-0.11337943 -0.14125021 -0.67199999
-0.11210998 -0.14125021 -0.67199999
-0.11084054 -0.14125021 -0.67199999
-0.10957109 -0.14125021 -0.67199999
-0.10830165 -0.14125021 -0.67199999
-0.10719147 -0.1414604 -0.67299998
-0.10592014 -0.1414604 -0.67299998
-0.1049598 -0.1418808 -0.67500001
-0.10368469 -0.1418808 -0.67500001
-0.10240958 -0.1418808 -0.67500001
-0.1012843 -0.14209099 -0.676
-0.1000073 -0.14209099 -0.676
-0.098730296 -0.14209099 -0.676
-0.097453289 -0.14209099 -0.676
-0.096176289 -0.14209099 -0.676
-0.094899289 -0.14209099 -0.676
-0.09362229 -0.14209099 -0.676
-0.09234529 -0.14209099 -0.676
-0.09106829 -0.14209099 -0.676
-0.089791283 -0.14209099 -0.676
-0.088514283 -0.14209099 -0.676
-0.087366328 -0.14230117 -0.67699999
-0.086087443 -0.14230117 -0.67699999
-0.084808551 -0.14230117 -0.67699999
-0.083776429 -0.14272158 -0.67900002
-0.082615249 -0.14293176 -0.68000001
-0.081569903 -0.14335215 -0.68199998
-0.080281563 -0.14335215 -0.68199998
-0.078993231 -0.14335215 -0.68199998
-0.077704892 -0.14335215 -0.68199998
-0.076528609 -0.14356235 -0.68300003
-0.075238384 -0.14356235 -0.68300003
-0.07394816 -0.14356235 -0.68300003
-0.072657935 -0.14356235 -0.68300003
-0.071367711 -0.14356235 -0.68300003
-0.070077486 -0.14356235 -0.68300003
-0.068787262 -0.14356235 -0.68300003
-0.067595862 -0.14377254 -0.68400002
-0.066303752 -0.14377254 -0.68400002
-0.065011635 -0.14377254 -0.68400002
-0.063719526 -0.14377254 -0.68400002
-0.062609941 -0.14419292 -0.68599999
-0.06131405 -0.14419292 -0.68599999
-0.060018159 -0.14419292 -0.68599999
-0.058807869 -0.14440311 -0.68699998
-0.15159582 -0.14143302 -0.667
-0.15033582 -0.14143302 -0.667
-0.14907582 -0.14143302 -0.667
-0.14759421 -0.14122097 -0.66600001
-0.14633609 -0.14122097 -0.66600001
-0.14507799 -0.14122097 -0.66600001
-0.14381988 -0.14122097 -0.66600001
-0.14256176 -0.14122097 -0.66600001
-0.14130366 -0.14122097 -0.66600001
-0.14004554 -0.14122097 -0.66600001
-0.13878743 -0.14122097 -0.66600001
-0.13752933 -0.14122097 -0.66600001
-0.13627121 -0.14122097 -0.66600001
-0.1350131 -0.14122097 -0.66600001
-0.13395582 -0.14143302 -0.667
-0.13269582 -0.14143302 -0.667
-0.13143583 -0.14143302 -0.667
-0.13037099 -0.14164506 -0.66799998
-0.1291091 -0.14164506 -0.66799998
-0.12784721 -0.14164506 -0.66799998
-0.12658532 -0.14164506 -0.66799998
-0.12569866 -0.14206916 -0.67000002
-0.124433 -0.14206916 -0.67000002
-0.12316733 -0.14206916 -0.67000002
-0.1220836 -0.14228119 -0.671
-0.12081604 -0.14228119 -0.671
-0.11954849 -0.14228119 -0.671
-0.11828093 -0.14228119 -0.671
-0.11718776 -0.14249323 -0.67199999
-0.11591832 -0.14249323 -0.67199999
-0.11464887 -0.14249323 -0.67199999
-0.11337943 -0.14249323 -0.67199999
-0.11210998 -0.14249323 -0.67199999
-0.11100548 -0.14270528 -0.67299998
-0.10973414 -0.14270528 -0.67299998
-0.10846281 -0.14270528 -0.67299998
-0.10719147 -0.14270528 -0.67299998
-0.10623492 -0.14312938 -0.67500001
-0.1051153 -0.14334141 -0.676
-0.10383829 -0.14334141 -0.676
-0.1025613 -0.14334141 -0.676
-0.1012843 -0.14334141 -0.676
-0.1000073 -0.14334141 -0.676
-0.098730296 -0.14334141 -0.676
-0.097453289 -0.14334141 -0.676
-0.096176289 -0.14334141 -0.676
-0.095039673 -0.14355345 -0.67699999
-0.093760781 -0.14355345 -0.67699999
-0.092481889 -0.14355345 -0.67699999
-0.091203004 -0.14355345 -0.67699999
-0.089924112 -0.14355345 -0.67699999
-0.08864522 -0.14355345 -0.67699999
-0.087366328 -0.14355345 -0.67699999
-0.086341769 -0.14397755 -0.67900002
-0.085059099 -0.14397755 -0.67900002
-0.083899811 -0.14418958 -0.68000001
-0.082858235 -0.14461367 -0.68199998
-0.081569903 -0.14461367 -0.68199998
-0.080399282 -0.14482573 -0.68300003
-0.079109058 -0.14482573 -0.68300003
-0.077818833 -0.14482573 -0.68300003
-0.076528609 -0.14482573 -0.68300003
-0.075238384 -0.14482573 -0.68300003
-0.07394816 -0.14482573 -0.68300003
-0.072764315 -0.14503777 -0.68400002
-0.071472205 -0.14503777 -0.68400002
-0.070180088 -0.14503777 -0.68400002
-0.068887979 -0.14503777 -0.68400002
-0.067595862 -0.14503777 -0.68400002
-0.066497616 -0.14546184 -0.68599999
-0.06520173 -0.14546184 -0.68599999
-0.063905835 -0.14546184 -0.68599999
-0.062609941 -0.14546184 -0.68599999
-0.061403431 -0.14567389 -0.68699998
-0.060105648 -0.14567389 -0.68699998
-0.058807869 -0.14567389 -0.68699998
-0.15033582 -0.1426668 -0.667
-0.14907582 -0.1426668 -0.667
-0.14781582 -0.1426668 -0.667
-0.14655581 -0.1426668 -0.667
-0.14507799 -0.14245291 -0.66600001
-0.14381988 -0.14245291 -0.66600001
-0.14256176 -0.14245291 -0.66600001
-0.14151582 -0.1426668 -0.667
-0.14025582 -0.1426668 -0.667
-0.13899583 -0.1426668 -0.667
-0.13773583 -0.1426668 -0.667
-0.13647582 -0.1426668 -0.667
-0.13521582 -0.1426668 -0.667
-0.13415666 -0.14288069 -0.66799998
-0.13289477 -0.14288069 -0.66799998
-0.13163288 -0.14288069 -0.66799998
-0.13076133 -0.14330848 -0.67000002
-0.12949567 -0.14330848 -0.67000002
-0.12822999 -0.14330848 -0.67000002
-0.12696433 -0.14330848 -0.67000002
-0.12569866 -0.14330848 -0.67000002
-0.12461871 -0.14352237 -0.671
-0.12335116 -0.14352237 -0.671
-0.1220836 -0.14352237 -0.671
-0.1209961 -0.14373626 -0.67199999
-0.11972665 -0.14373626 -0.67199999
-0.11845721 -0.14373626 -0.67199999
-0.11718776 -0.14373626 -0.67199999
-0.11609081 -0.14395015 -0.67299998
-0.11481947 -0.14395015 -0.67299998
-0.11354814 -0.14395015 -0.67299998
-0.11227681 -0.14395015 -0.67299998
-0.11133537 -0.14437795 -0.67500001
-0.11006025 -0.14437795 -0.67500001
-0.10878514 -0.14437795 -0.67500001
-0.10751003 -0.14437795 -0.67500001
-0.1063923 -0.14459184 -0.676
-0.1051153 -0.14459184 -0.676
-0.1039919 -0.14480573 -0.67699999
-0.10271301 -0.14480573 -0.67699999
-0.10143412 -0.14480573 -0.67699999
-0.10015523 -0.14480573 -0.67699999
-0.098876342 -0.14480573 -0.67699999
-0.09759745 -0.14480573 -0.67699999
