# .PCD v0.7 - Point Cloud Data file format
VERSION 0.7
FIELDS x y z
SIZE 4 4 4
TYPE F F F
COUNT 1 1 1
WIDTH 1367
HEIGHT 1
VIEWPOINT 0 0 0 1 0 0 0
POINTS 1367
DATA ascii
0.10410282 -0.080393724 -0.68300003
0.10539304 -0.080393724 -0.68300003
0.10668327 -0.080393724 -0.68300003
0.10797349 -0.080393724 -0.68300003
0.10926372 -0.080393724 -0.68300003
0.11055394 -0.080393724 -0.68300003
0.11184417 -0.080393724 -0.68300003
0.11330003 -0.080511428 -0.68400002
0.11459214 -0.080511428 -0.68400002
0.11588426 -0.080511428 -0.68400002
0.11751898 -0.080746837 -0.68599999
0.11881488 -0.080746837 -0.68599999
0.12011077 -0.080746837 -0.68599999
0.12158364 -0.080864541 -0.68699998
0.12288142 -0.080864541 -0.68699998
0.1241792 -0.080864541 -0.68699998
0.12547699 -0.080864541 -0.68699998
0.12677476 -0.080864541 -0.68699998
0.12807254 -0.080864541 -0.68699998
0.12937032 -0.080864541 -0.68699998
0.1306681 -0.080864541 -0.68699998
0.13196588 -0.080864541 -0.68699998
0.084749453 -0.081657097 -0.68300003
0.086039677 -0.081657097 -0.68300003
0.087202027 -0.08153753 -0.68199998
0.088490367 -0.08153753 -0.68199998
0.089778699 -0.08153753 -0.68199998
0.09079998 -0.081298426 -0.68000001
0.092084542 -0.081298426 -0.68000001
0.093369097 -0.081298426 -0.68000001
0.094932042 -0.08153753 -0.68199998
0.096220382 -0.08153753 -0.68199998
0.097508714 -0.08153753 -0.68199998
0.098797046 -0.08153753 -0.68199998
0.10008539 -0.08153753 -0.68199998
0.10137372 -0.08153753 -0.68199998
0.10266206 -0.08153753 -0.68199998
0.10410282 -0.081657097 -0.68300003
0.10539304 -0.081657097 -0.68300003
0.10668327 -0.081657097 -0.68300003
0.10797349 -0.081657097 -0.68300003
0.10926372 -0.081657097 -0.68300003
0.11055394 -0.081657097 -0.68300003
0.11184417 -0.081657097 -0.68300003
0.11330003 -0.081776649 -0.68400002
0.11459214 -0.081776649 -0.68400002
0.11588426 -0.081776649 -0.68400002
0.11751898 -0.08201576 -0.68599999
0.11881488 -0.08201576 -0.68599999
0.12011077 -0.08201576 -0.68599999
0.12158364 -0.082135312 -0.68699998
0.12288142 -0.082135312 -0.68699998
0.1241792 -0.082135312 -0.68699998
0.12547699 -0.082135312 -0.68699998
0.12677476 -0.082135312 -0.68699998
0.12807254 -0.082135312 -0.68699998
0.12937032 -0.082135312 -0.68699998
0.1306681 -0.082135312 -0.68699998
0.13196588 -0.082135312 -0.68699998
0.084749453 -0.082920469 -0.68300003
0.085913695 -0.082799055 -0.68199998
0.087202027 -0.082799055 -0.68199998
0.088490367 -0.082799055 -0.68199998
0.089778699 -0.082799055 -0.68199998
0.09079998 -0.082556248 -0.68000001
0.092084542 -0.082556248 -0.68000001
0.093369097 -0.082556248 -0.68000001
0.094932042 -0.082799055 -0.68199998
0.096220382 -0.082799055 -0.68199998
0.097508714 -0.082799055 -0.68199998
0.098797046 -0.082799055 -0.68199998
0.10008539 -0.082799055 -0.68199998
0.10137372 -0.082799055 -0.68199998
0.10266206 -0.082799055 -0.68199998
0.10410282 -0.082920469 -0.68300003
0.10539304 -0.082920469 -0.68300003
0.10668327 -0.082920469 -0.68300003
0.10797349 -0.082920469 -0.68300003
0.10926372 -0.082920469 -0.68300003
0.11055394 -0.082920469 -0.68300003
0.11200792 -0.083041869 -0.68400002
0.11330003 -0.083041869 -0.68400002
0.11459214 -0.083041869 -0.68400002
0.1162231 -0.083284684 -0.68599999
0.11751898 -0.083284684 -0.68599999
0.11881488 -0.083284684 -0.68599999
0.12028585 -0.083406083 -0.68699998
0.12158364 -0.083406083 -0.68699998
0.12288142 -0.083406083 -0.68699998
0.1241792 -0.083406083 -0.68699998
0.12547699 -0.083406083 -0.68699998
0.12677476 -0.083406083 -0.68699998
0.12807254 -0.083406083 -0.68699998
0.12937032 -0.083406083 -0.68699998
0.1306681 -0.083406083 -0.68699998
0.13254216 -0.083770305 -0.69
0.084749453 -0.084183842 -0.68300003
0.085913695 -0.08406058 -0.68199998
0.087202027 -0.08406058 -0.68199998
0.088490367 -0.08406058 -0.68199998
0.089778699 -0.08406058 -0.68199998
0.09079998 -0.08381407 -0.68000001
0.092084542 -0.08381407 -0.68000001
0.093369097 -0.08381407 -0.68000001
0.094932042 -0.08406058 -0.68199998
0.096220382 -0.08406058 -0.68199998
0.097508714 -0.08406058 -0.68199998
0.098797046 -0.08406058 -0.68199998
0.10008539 -0.08406058 -0.68199998
0.10137372 -0.08406058 -0.68199998
0.1028126 -0.084183842 -0.68300003
0.10410282 -0.084183842 -0.68300003
0.10539304 -0.084183842 -0.68300003
0.10668327 -0.084183842 -0.68300003
0.10797349 -0.084183842 -0.68300003
0.10926372 -0.084183842 -0.68300003
0.1107158 -0.084307097 -0.68400002
0.11200792 -0.084307097 -0.68400002
0.11330003 -0.084307097 -0.68400002
0.1149272 -0.084553599 -0.68599999
0.1162231 -0.084553599 -0.68599999
0.11751898 -0.084553599 -0.68599999
0.11898807 -0.084676854 -0.68699998
0.12028585 -0.084676854 -0.68699998
0.12158364 -0.084676854 -0.68699998
0.12288142 -0.084676854 -0.68699998
0.12435997 -0.084800117 -0.68800002
0.12565963 -0.084800117 -0.68800002
0.12695931 -0.084800117 -0.68800002
0.12825897 -0.084800117 -0.68800002
0.12955864 -0.084800117 -0.68800002
0.13123871 -0.085046627 -0.69
0.13311844 -0.085416399 -0.69300002
0.13520347 -0.085909426 -0.69700003
0.07693734 -0.086823374 -0.69400001
0.078248344 -0.086823374 -0.69400001
0.084625363 -0.085322104 -0.68199998
0.085913695 -0.085322104 -0.68199998
0.087202027 -0.085322104 -0.68199998
0.088490367 -0.085322104 -0.68199998
0.089778699 -0.085322104 -0.68199998
0.09079998 -0.085071892 -0.68000001
0.092084542 -0.085071892 -0.68000001
0.093369097 -0.085071892 -0.68000001
0.094932042 -0.085322104 -0.68199998
0.096220382 -0.085322104 -0.68199998
0.097508714 -0.085322104 -0.68199998
0.098797046 -0.085322104 -0.68199998
0.10023215 -0.085447215 -0.68300003
0.10152237 -0.085447215 -0.68300003
0.1028126 -0.085447215 -0.68300003
0.10410282 -0.085447215 -0.68300003
0.10539304 -0.085447215 -0.68300003
0.10683946 -0.085572317 -0.68400002
0.10813157 -0.085572317 -0.68400002
0.10942369 -0.085572317 -0.68400002
0.1107158 -0.085572317 -0.68400002
0.11233542 -0.085822523 -0.68599999
0.11363132 -0.085822523 -0.68599999
0.1149272 -0.085822523 -0.68599999
0.11639252 -0.085947625 -0.68699998
0.11769029 -0.085947625 -0.68699998
0.11898807 -0.085947625 -0.68699998
0.12028585 -0.085947625 -0.68699998
0.12176062 -0.086072743 -0.68800002
0.12306029 -0.086072743 -0.68800002
0.12435997 -0.086072743 -0.68800002
0.12602492 -0.086322948 -0.69
0.12732837 -0.086322948 -0.69
0.12881823 -0.086448051 -0.69099998
0.1305002 -0.086698271 -0.69300002
0.13180931 -0.086698271 -0.69300002
0.13331051 -0.086823374 -0.69400001
0.13520347 -0.08719869 -0.69700003
0.13671599 -0.0873238 -0.69800001
0.07693734 -0.088107094 -0.69400001
0.078248344 -0.088107094 -0.69400001
0.079444714 -0.087980136 -0.69300002
0.083459228 -0.086710587 -0.68300003
0.084749453 -0.086710587 -0.68300003
0.085913695 -0.086583622 -0.68199998
0.087202027 -0.086583622 -0.68199998
0.088490367 -0.086583622 -0.68199998
0.089778699 -0.086583622 -0.68199998
0.09079998 -0.086329713 -0.68000001
0.092084542 -0.086329713 -0.68000001
0.09364371 -0.086583622 -0.68199998
0.094932042 -0.086583622 -0.68199998
0.096220382 -0.086583622 -0.68199998
0.097508714 -0.086583622 -0.68199998
0.098941922 -0.086710587 -0.68300003
0.10023215 -0.086710587 -0.68300003
0.10152237 -0.086710587 -0.68300003
0.1028126 -0.086710587 -0.68300003
0.10410282 -0.086710587 -0.68300003
0.10554735 -0.086837538 -0.68400002
0.10683946 -0.086837538 -0.68400002
0.10813157 -0.086837538 -0.68400002
0.10974364 -0.087091446 -0.68599999
0.11103953 -0.087091446 -0.68599999
0.11233542 -0.087091446 -0.68599999
0.11379696 -0.087218404 -0.68699998
0.11509474 -0.087218404 -0.68699998
0.11639252 -0.087218404 -0.68699998
0.11769029 -0.087218404 -0.68699998
0.11916129 -0.087345362 -0.68800002
0.12046095 -0.087345362 -0.68800002
0.12211458 -0.08759927 -0.69
0.12341802 -0.08759927 -0.69
0.12472147 -0.08759927 -0.69
0.12620756 -0.08772622 -0.69099998
0.1275129 -0.08772622 -0.69099998
0.12919109 -0.087980136 -0.69300002
0.1305002 -0.087980136 -0.69300002
0.13199951 -0.088107094 -0.69400001
0.13331051 -0.088107094 -0.69400001
0.13520347 -0.08848796 -0.69700003
0.13652013 -0.08848796 -0.69700003
0.13803457 -0.088614918 -0.69800001
0.07693734 -0.089390814 -0.69400001
0.078135602 -0.089262009 -0.69300002
0.07921543 -0.08900439 -0.69099998
0.083459228 -0.08797396 -0.68300003
0.084749453 -0.08797396 -0.68300003
0.086039677 -0.08797396 -0.68300003
0.087202027 -0.087845147 -0.68199998
0.088490367 -0.087845147 -0.68199998
0.089778699 -0.087845147 -0.68199998
0.091067038 -0.087845147 -0.68199998
0.092355371 -0.087845147 -0.68199998
0.09364371 -0.087845147 -0.68199998
0.095071249 -0.08797396 -0.68300003
0.096361473 -0.08797396 -0.68300003
0.097651698 -0.08797396 -0.68300003
0.098941922 -0.08797396 -0.68300003
0.10037889 -0.088102758 -0.68400002
0.10167101 -0.088102758 -0.68400002
0.10296312 -0.088102758 -0.68400002
0.10456007 -0.088360369 -0.68599999
0.10585596 -0.088360369 -0.68599999
0.10715185 -0.088360369 -0.68599999
0.10844775 -0.088360369 -0.68599999
0.10990361 -0.088489175 -0.68699998
0.11120139 -0.088489175 -0.68699998
0.11249917 -0.088489175 -0.68699998
0.11379696 -0.088489175 -0.68699998
0.11526228 -0.08861798 -0.68800002
0.11656194 -0.08861798 -0.68800002
0.11786161 -0.08861798 -0.68800002
0.11950768 -0.088875592 -0.69
0.12081113 -0.088875592 -0.69
0.12229155 -0.08900439 -0.69099998
0.12359688 -0.08900439 -0.69099998
0.12490223 -0.08900439 -0.69099998
0.12657286 -0.089262009 -0.69300002
0.12788197 -0.089262009 -0.69300002
0.12919109 -0.089262009 -0.69300002
0.1306885 -0.089390814 -0.69400001
0.13199951 -0.089390814 -0.69400001
0.1335026 -0.089519612 -0.69499999
0.13520347 -0.089777231 -0.69700003
0.13671599 -0.089906037 -0.69800001
0.13803457 -0.089906037 -0.69800001
0.1397524 -0.090163641 -0.69999999
0.075626336 -0.090674534 -0.69400001
0.07693734 -0.090674534 -0.69400001
0.078135602 -0.090543881 -0.69300002
0.079100795 -0.090151913 -0.69
0.080404244 -0.090151913 -0.69
0.081470862 -0.089890607 -0.68800002
0.082650222 -0.089759946 -0.68699998
0.083581418 -0.089367986 -0.68400002
0.084749453 -0.089237332 -0.68300003
0.086039677 -0.089237332 -0.68300003
0.087329902 -0.089237332 -0.68300003
0.088620126 -0.089237332 -0.68300003
0.089910351 -0.089237332 -0.68300003
0.091200575 -0.089237332 -0.68300003
0.0924908 -0.089237332 -0.68300003
0.093781024 -0.089237332 -0.68300003
0.095071249 -0.089237332 -0.68300003
0.096361473 -0.089237332 -0.68300003
0.097794667 -0.089367986 -0.68400002
0.099086784 -0.089367986 -0.68400002
0.10067239 -0.089629292 -0.68599999
0.10196829 -0.089629292 -0.68599999
0.10326418 -0.089629292 -0.68599999
0.10471249 -0.089759946 -0.68699998
0.10601027 -0.089759946 -0.68699998
0.10730805 -0.089759946 -0.68699998
0.10860583 -0.089759946 -0.68699998
0.10990361 -0.089759946 -0.68699998
0.11120139 -0.089759946 -0.68699998
0.11266293 -0.089890607 -0.68800002
0.11396261 -0.089890607 -0.68800002
0.11526228 -0.089890607 -0.68800002
0.11690078 -0.090151913 -0.69
0.11820423 -0.090151913 -0.69
0.11968087 -0.090282567 -0.69099998
0.12098622 -0.090282567 -0.69099998
0.12229155 -0.090282567 -0.69099998
0.12395462 -0.090543881 -0.69300002
0.12526374 -0.090543881 -0.69300002
0.12675549 -0.090674534 -0.69400001
0.1280665 -0.090674534 -0.69400001
0.1293775 -0.090674534 -0.69400001
0.13087682 -0.090805188 -0.69499999
0.13218971 -0.090805188 -0.69499999
0.1338868 -0.091066502 -0.69700003
0.13539743 -0.091197155 -0.69800001
0.13671599 -0.091197155 -0.69800001
0.13843007 -0.091458462 -0.69999999
0.1397524 -0.091458462 -0.69999999
0.14127629 -0.091589116 -0.70099998
0.070483737 -0.092090756 -0.69499999
0.071693331 -0.091958255 -0.69400001
0.073004335 -0.091958255 -0.69400001
0.074315339 -0.091958255 -0.69400001
0.075626336 -0.091958255 -0.69400001
0.07693734 -0.091958255 -0.69400001
0.078135602 -0.091825746 -0.69300002
0.079100795 -0.091428228 -0.69
0.08017119 -0.091163225 -0.68800002
0.081352435 -0.091030717 -0.68699998
0.082529917 -0.090898208 -0.68599999
0.083581418 -0.090633206 -0.68400002
0.084873535 -0.090633206 -0.68400002
0.086039677 -0.090500705 -0.68300003
0.087329902 -0.090500705 -0.68300003
0.088620126 -0.090500705 -0.68300003
0.089910351 -0.090500705 -0.68300003
0.091200575 -0.090500705 -0.68300003
0.0924908 -0.090500705 -0.68300003
0.093781024 -0.090500705 -0.68300003
0.09521044 -0.090633206 -0.68400002
0.096502557 -0.090633206 -0.68400002
0.098080613 -0.090898208 -0.68599999
0.099376507 -0.090898208 -0.68599999
0.10081915 -0.091030717 -0.68699998
0.10211693 -0.091030717 -0.68699998
0.10341471 -0.091030717 -0.68699998
0.10471249 -0.091030717 -0.68699998
0.10601027 -0.091030717 -0.68699998
0.10746425 -0.091163225 -0.68800002
0.10876393 -0.091163225 -0.68800002
0.1100636 -0.091163225 -0.68800002
0.11136326 -0.091163225 -0.68800002
0.11266293 -0.091163225 -0.68800002
0.11429389 -0.091428228 -0.69
0.11576486 -0.091560736 -0.69099998
0.1170702 -0.091560736 -0.69099998
0.11871816 -0.091825746 -0.69300002
0.12002728 -0.091825746 -0.69300002
0.12133639 -0.091825746 -0.69300002
0.12264551 -0.091825746 -0.69300002
0.12413349 -0.091958255 -0.69400001
0.12544449 -0.091958255 -0.69400001
0.12675549 -0.091958255 -0.69400001
0.1280665 -0.091958255 -0.69400001
0.12956393 -0.092090756 -0.69499999
0.13125345 -0.092355765 -0.69700003
0.13276032 -0.092488274 -0.69800001
0.13407888 -0.092488274 -0.69800001
0.13539743 -0.092488274 -0.69800001
0.13710773 -0.092753276 -0.69999999
0.13843007 -0.092753276 -0.69999999
0.1397524 -0.092753276 -0.69999999
0.14127629 -0.092885777 -0.70099998
0.14260051 -0.092885777 -0.70099998
0.070382327 -0.093241967 -0.69400001
0.071693331 -0.093241967 -0.69400001
0.073004335 -0.093241967 -0.69400001
0.074315339 -0.093241967 -0.69400001
0.075626336 -0.093241967 -0.69400001
0.076826483 -0.093107618 -0.69300002
0.077910095 -0.092838906 -0.69099998
0.078871518 -0.092435844 -0.68800002
0.080054656 -0.092301488 -0.68699998
0.081352435 -0.092301488 -0.68699998
0.082529917 -0.092167132 -0.68599999
0.083825804 -0.092167132 -0.68599999
0.084873535 -0.091898426 -0.68400002
0.086165644 -0.091898426 -0.68400002
0.087457761 -0.091898426 -0.68400002
0.088620126 -0.091764078 -0.68300003
0.089910351 -0.091764078 -0.68300003
0.091334097 -0.091898426 -0.68400002
0.092626214 -0.091898426 -0.68400002
0.093918324 -0.091898426 -0.68400002
0.095488831 -0.092167132 -0.68599999
0.096784718 -0.092167132 -0.68599999
0.098223589 -0.092301488 -0.68699998
0.099521369 -0.092301488 -0.68699998
0.10081915 -0.092301488 -0.68699998
0.10226557 -0.092435844 -0.68800002
0.10356525 -0.092435844 -0.68800002
0.10486492 -0.092435844 -0.68800002
0.10616458 -0.092435844 -0.68800002
0.10746425 -0.092435844 -0.68800002
0.10876393 -0.092435844 -0.68800002
0.1100636 -0.092435844 -0.68800002
0.11168699 -0.092704549 -0.69
0.11315419 -0.092838906 -0.69099998
0.11445953 -0.092838906 -0.69099998
0.11609994 -0.093107618 -0.69300002
0.11740905 -0.093107618 -0.69300002
0.11888947 -0.093241967 -0.69400001
0.12020048 -0.093241967 -0.69400001
0.12151148 -0.093241967 -0.69400001
0.12282249 -0.093241967 -0.69400001
0.12413349 -0.093241967 -0.69400001
0.12544449 -0.093241967 -0.69400001
0.12693813 -0.093376324 -0.69499999
0.12825103 -0.093376324 -0.69499999
0.12993678 -0.093645036 -0.69700003
0.13144176 -0.093779393 -0.69800001
0.13276032 -0.093779393 -0.69800001
0.13407888 -0.093779393 -0.69800001
0.1357854 -0.094048098 -0.69999999
0.13710773 -0.094048098 -0.69999999
0.13843007 -0.094048098 -0.69999999
0.1397524 -0.094048098 -0.69999999
0.14127629 -0.094182447 -0.70099998
0.14260051 -0.094182447 -0.70099998
0.070382327 -0.094525687 -0.69400001
0.071693331 -0.094525687 -0.69400001
0.073004335 -0.094525687 -0.69400001
0.074315339 -0.094525687 -0.69400001
0.075517371 -0.094389491 -0.69300002
0.076826483 -0.094389491 -0.69300002
0.077910095 -0.094117075 -0.69099998
0.078871518 -0.09370847 -0.68800002
0.080054656 -0.093572259 -0.68699998
0.081352435 -0.093572259 -0.68699998
0.082650222 -0.093572259 -0.68699998
0.083825804 -0.093436055 -0.68599999
0.085121699 -0.093436055 -0.68599999
0.086417586 -0.093436055 -0.68599999
0.08771348 -0.093436055 -0.68599999
0.088749871 -0.093163647 -0.68400002
0.090041988 -0.093163647 -0.68400002
0.091601156 -0.093436055 -0.68599999
0.09289705 -0.093436055 -0.68599999
0.094192937 -0.093436055 -0.68599999
0.095628023 -0.093572259 -0.68699998
0.096925803 -0.093572259 -0.68699998
0.098223589 -0.093572259 -0.68699998
0.099666238 -0.09370847 -0.68800002
0.10096591 -0.09370847 -0.68800002
0.10226557 -0.09370847 -0.68800002
0.10356525 -0.09370847 -0.68800002
0.10516975 -0.093980871 -0.69
0.1064732 -0.093980871 -0.69
0.10777665 -0.093980871 -0.69
0.10923818 -0.094117075 -0.69099998
0.11054352 -0.094117075 -0.69099998
0.11184885 -0.094117075 -0.69099998
0.11348171 -0.094389491 -0.69300002
0.11479082 -0.094389491 -0.69300002
0.11609994 -0.094389491 -0.69300002
0.11757847 -0.094525687 -0.69400001
0.11888947 -0.094525687 -0.69400001
0.12020048 -0.094525687 -0.69400001
0.12151148 -0.094525687 -0.69400001
0.12282249 -0.094525687 -0.69400001
0.12431236 -0.094661891 -0.69499999
0.12562525 -0.094661891 -0.69499999
0.12730344 -0.094934307 -0.69700003
0.12880464 -0.095070511 -0.69800001
0.1301232 -0.095070511 -0.69800001
0.13144176 -0.095070511 -0.69800001
0.13276032 -0.095070511 -0.69800001
0.13446306 -0.095342912 -0.69999999
0.1357854 -0.095342912 -0.69999999
0.13710773 -0.095342912 -0.69999999
0.13843007 -0.095342912 -0.69999999
0.1397524 -0.095342912 -0.69999999
0.14127629 -0.095479116 -0.70099998
0.14260051 -0.095479116 -0.70099998
0.071693331 -0.095809408 -0.69400001
0.073004335 -0.095809408 -0.69400001
0.074315339 -0.095809408 -0.69400001
0.075517371 -0.095671356 -0.69300002
0.076604761 -0.095395245 -0.69099998
0.077797346 -0.095257193 -0.69
0.078871518 -0.094981089 -0.68800002
0.08017119 -0.094981089 -0.68800002
0.081352435 -0.09484303 -0.68699998
0.082650222 -0.09484303 -0.68699998
0.083948001 -0.09484303 -0.68699998
0.085245781 -0.09484303 -0.68699998
0.08654356 -0.09484303 -0.68699998
0.087841339 -0.09484303 -0.68699998
0.089009374 -0.094704978 -0.68599999
0.090305261 -0.094704978 -0.68599999
0.091734685 -0.09484303 -0.68699998
0.093032464 -0.09484303 -0.68699998
0.094330244 -0.09484303 -0.68699998
0.095628023 -0.09484303 -0.68699998
0.097066894 -0.094981089 -0.68800002
0.098366566 -0.094981089 -0.68800002
0.099666238 -0.094981089 -0.68800002
0.10096591 -0.094981089 -0.68800002
0.10256286 -0.095257193 -0.69
0.1038663 -0.095257193 -0.69
0.10532217 -0.095395245 -0.69099998
0.10662751 -0.095395245 -0.69099998
0.10793284 -0.095395245 -0.69099998
0.10955436 -0.095671356 -0.69300002
0.11086348 -0.095671356 -0.69300002
0.11217259 -0.095671356 -0.69300002
0.11364546 -0.095809408 -0.69400001
0.11495646 -0.095809408 -0.69400001
0.11626747 -0.095809408 -0.69400001
0.11757847 -0.095809408 -0.69400001
0.11906078 -0.095947459 -0.69499999
0.12037367 -0.095947459 -0.69499999
0.12168657 -0.095947459 -0.69499999
0.12299946 -0.095947459 -0.69499999
0.1246701 -0.096223578 -0.69700003
0.12598677 -0.096223578 -0.69700003
0.12748608 -0.09636163 -0.69800001
0.12880464 -0.09636163 -0.69800001
0.1301232 -0.09636163 -0.69800001
0.13144176 -0.09636163 -0.69800001
0.13314071 -0.096637733 -0.69999999
0.13446306 -0.096637733 -0.69999999
0.1357854 -0.096637733 -0.69999999
0.13710773 -0.096637733 -0.69999999
0.13843007 -0.096637733 -0.69999999
0.13995205 -0.096775785 -0.70099998
0.14127629 -0.096775785 -0.70099998
0.14260051 -0.096775785 -0.70099998
0.14454068 -0.097189948 -0.704
0.073004335 -0.097093128 -0.69400001
0.074208252 -0.096953228 -0.69300002
0.075299419 -0.096673414 -0.69099998
0.076493897 -0.096533515 -0.69
0.077797346 -0.096533515 -0.69
0.078871518 -0.096253708 -0.68800002
0.08017119 -0.096253708 -0.68800002
0.081352435 -0.096113801 -0.68699998
0.082650222 -0.096113801 -0.68699998
0.083948001 -0.096113801 -0.68699998
0.085245781 -0.096113801 -0.68699998
0.08654356 -0.096113801 -0.68699998
0.087841339 -0.096113801 -0.68699998
0.089139119 -0.096113801 -0.68699998
0.090436906 -0.096113801 -0.68699998
0.091734685 -0.096113801 -0.68699998
0.093032464 -0.096113801 -0.68699998
0.094330244 -0.096113801 -0.68699998
0.09576723 -0.096253708 -0.68800002
0.097066894 -0.096253708 -0.68800002
0.098366566 -0.096253708 -0.68800002
0.099955961 -0.096533515 -0.69
0.10125941 -0.096533515 -0.69
0.1027115 -0.096673414 -0.69099998
0.10401683 -0.096673414 -0.69099998
0.10562702 -0.096953228 -0.69300002
0.10693613 -0.096953228 -0.69300002
0.10824525 -0.096953228 -0.69300002
0.10955436 -0.096953228 -0.69300002
0.11086348 -0.096953228 -0.69300002
0.11233445 -0.097093128 -0.69400001
0.11364546 -0.097093128 -0.69400001
0.11495646 -0.097093128 -0.69400001
0.11626747 -0.097093128 -0.69400001
0.11774789 -0.097233035 -0.69499999
0.11906078 -0.097233035 -0.69499999
0.12072008 -0.097512841 -0.69700003
0.12203675 -0.097512841 -0.69700003
0.12335342 -0.097512841 -0.69700003
0.12484895 -0.097652748 -0.69800001
0.12616752 -0.097652748 -0.69800001
0.12748608 -0.097652748 -0.69800001
0.1291737 -0.097932547 -0.69999999
0.13049604 -0.097932547 -0.69999999
0.13181838 -0.097932547 -0.69999999
0.13314071 -0.097932547 -0.69999999
0.13446306 -0.097932547 -0.69999999
0.1357854 -0.097932547 -0.69999999
0.13710773 -0.097932547 -0.69999999
0.13862783 -0.098072454 -0.70099998
0.13995205 -0.098072454 -0.70099998
0.14167936 -0.098352261 -0.70300001
0.14300737 -0.098352261 -0.70300001
0.14454068 -0.098492168 -0.704
0.14711379 -0.099331588 -0.70999998
0.14929138 -0.099891201 -0.71399999
0.15064016 -0.099891201 -0.71399999
0.073994085 -0.097951584 -0.69099998
0.075299419 -0.097951584 -0.69099998
0.076493897 -0.097809836 -0.69
0.077571854 -0.097526334 -0.68800002
0.078871518 -0.097526334 -0.68800002
0.08017119 -0.097526334 -0.68800002
0.081470862 -0.097526334 -0.68800002
0.082650222 -0.097384572 -0.68699998
0.084070198 -0.097526334 -0.68800002
0.08536987 -0.097526334 -0.68800002
0.086669542 -0.097526334 -0.68800002
0.087969206 -0.097526334 -0.68800002
0.089139119 -0.097384572 -0.68699998
0.090436906 -0.097384572 -0.68699998
0.091868222 -0.097526334 -0.68800002
0.093167886 -0.097526334 -0.68800002
0.094467558 -0.097526334 -0.68800002
0.096045621 -0.097809836 -0.69
0.097349063 -0.097809836 -0.69
0.098652512 -0.097809836 -0.69
0.10010082 -0.097951584 -0.69099998
0.10140616 -0.097951584 -0.69099998
0.10300878 -0.098235101 -0.69300002
0.1043179 -0.098235101 -0.69300002
0.10562702 -0.098235101 -0.69300002
0.10693613 -0.098235101 -0.69300002
0.10840144 -0.098376848 -0.69400001
0.10971244 -0.098376848 -0.69400001
0.11102345 -0.098376848 -0.69400001
0.11233445 -0.098376848 -0.69400001
0.11380921 -0.098518603 -0.69499999
0.1151221 -0.098518603 -0.69499999
0.11677007 -0.098802112 -0.69700003
0.11808674 -0.098802112 -0.69700003
0.11957472 -0.098943867 -0.69800001
0.12089328 -0.098943867 -0.69800001
0.12221184 -0.098943867 -0.69800001
0.1235304 -0.098943867 -0.69800001
0.12484895 -0.098943867 -0.69800001
0.12652902 -0.099227369 -0.69999999
0.12785137 -0.099227369 -0.69999999
0.1291737 -0.099227369 -0.69999999
0.13049604 -0.099227369 -0.69999999
0.13200669 -0.099369116 -0.70099998
0.13333091 -0.099369116 -0.70099998
0.13465515 -0.099369116 -0.70099998
0.13597937 -0.099369116 -0.70099998
0.13769534 -0.099652633 -0.70300001
0.13902335 -0.099652633 -0.70300001
0.14035136 -0.099652633 -0.70300001
0.14167936 -0.099652633 -0.70300001
0.14321078 -0.09979438 -0.704
0.14474599 -0.099936135 -0.70499998
0.14711379 -0.1006449 -0.70999998
0.14866412 -0.10078666 -0.71100003
0.15042919 -0.10107017 -0.713
0.15177609 -0.10107017 -0.713
0.072688751 -0.099229753 -0.69099998
0.073994085 -0.099229753 -0.69099998
0.075190455 -0.099086158 -0.69
0.076493897 -0.099086158 -0.69
0.077571854 -0.098798953 -0.68800002
0.078871518 -0.098798953 -0.68800002
0.08017119 -0.098798953 -0.68800002
0.081470862 -0.098798953 -0.68800002
0.082770534 -0.098798953 -0.68800002
0.084070198 -0.098798953 -0.68800002
0.08536987 -0.098798953 -0.68800002
0.086669542 -0.098798953 -0.68800002
0.087969206 -0.098798953 -0.68800002
0.089268878 -0.098798953 -0.68800002
0.09056855 -0.098798953 -0.68800002
0.091868222 -0.098798953 -0.68800002
0.093438722 -0.099086158 -0.69
0.094742171 -0.099086158 -0.69
0.096184812 -0.099229753 -0.69099998
0.097490147 -0.099229753 -0.69099998
0.098795488 -0.099229753 -0.69099998
0.10039055 -0.099516965 -0.69300002
0.10169967 -0.099516965 -0.69300002
0.10300878 -0.099516965 -0.69300002
0.10446843 -0.099660568 -0.69400001
0.10577943 -0.099660568 -0.69400001
0.10709044 -0.099660568 -0.69400001
0.10840144 -0.099660568 -0.69400001
0.10987053 -0.09980417 -0.69499999
0.11118342 -0.09980417 -0.69499999
0.11282005 -0.10009138 -0.69700003
0.11413673 -0.10009138 -0.69700003
0.11561903 -0.10023499 -0.69800001
0.11693759 -0.10023499 -0.69800001
0.11825616 -0.10023499 -0.69800001
0.11957472 -0.10023499 -0.69800001
0.12123967 -0.10052218 -0.69999999
0.12256201 -0.10052218 -0.69999999
0.12388435 -0.10052218 -0.69999999
0.12520669 -0.10052218 -0.69999999
0.12652902 -0.10052218 -0.69999999
0.12803401 -0.10066579 -0.70099998
0.12935823 -0.10066579 -0.70099998
0.13068245 -0.10066579 -0.70099998
0.13238332 -0.100953 -0.70300001
0.13371132 -0.100953 -0.70300001
0.13503933 -0.100953 -0.70300001
0.13636734 -0.100953 -0.70300001
0.13769534 -0.100953 -0.70300001
0.1392211 -0.1010966 -0.704
0.140551 -0.1010966 -0.704
0.14188088 -0.1010966 -0.704
0.1434142 -0.1012402 -0.70499998
0.14515662 -0.10152741 -0.70700002
0.14711379 -0.10195822 -0.70999998
0.14866412 -0.10210183 -0.71100003
0.15042919 -0.10238903 -0.713
0.15177609 -0.10238903 -0.713
0.15312298 -0.10238903 -0.713
0.066170759 -0.10254427 -0.70499998
0.067406796 -0.10239881 -0.704
0.072688751 -0.10050793 -0.69099998
0.073994085 -0.10050793 -0.69099998
0.075190455 -0.10036248 -0.69
0.076493897 -0.10036248 -0.69
0.077571854 -0.10007157 -0.68800002
0.078871518 -0.10007157 -0.68800002
0.08017119 -0.10007157 -0.68800002
0.081470862 -0.10007157 -0.68800002
0.082770534 -0.10007157 -0.68800002
0.084070198 -0.10007157 -0.68800002
0.08536987 -0.10007157 -0.68800002
0.086669542 -0.10007157 -0.68800002
0.087969206 -0.10007157 -0.68800002
0.089268878 -0.10007157 -0.68800002
0.090831824 -0.10036248 -0.69
0.092268802 -0.10050793 -0.69099998
0.093574136 -0.10050793 -0.69099998
0.094879478 -0.10050793 -0.69099998
0.096463211 -0.10079884 -0.69300002
0.097772323 -0.10079884 -0.69300002
0.099081442 -0.10079884 -0.69300002
0.10039055 -0.10079884 -0.69300002
0.10169967 -0.10079884 -0.69300002
0.10315742 -0.10094429 -0.69400001
0.10446843 -0.10094429 -0.69400001
0.10593185 -0.10108974 -0.69499999
0.10724474 -0.10108974 -0.69499999
0.10855763 -0.10108974 -0.69499999
0.11018671 -0.10138065 -0.69700003
0.11150338 -0.10138065 -0.69700003
0.11298192 -0.1015261 -0.69800001
0.11430047 -0.1015261 -0.69800001
0.11561903 -0.1015261 -0.69800001
0.11727266 -0.101817 -0.69999999
0.118595 -0.101817 -0.69999999
0.11991733 -0.101817 -0.69999999
0.12123967 -0.101817 -0.69999999
0.12256201 -0.101817 -0.69999999
0.12406132 -0.10196245 -0.70099998
0.12538555 -0.10196245 -0.70099998
0.12707129 -0.10225336 -0.70300001
0.1283993 -0.10225336 -0.70300001
0.1297273 -0.10225336 -0.70300001
0.13124174 -0.10239881 -0.704
0.13257162 -0.10239881 -0.704
0.13390152 -0.10239881 -0.704
0.13523142 -0.10239881 -0.704
0.1365613 -0.10239881 -0.704
0.1378912 -0.10239881 -0.704
0.1392211 -0.10239881 -0.704
0.14075063 -0.10254427 -0.70499998
0.14208242 -0.10254427 -0.70499998
0.14382106 -0.10283518 -0.70700002
0.14536193 -0.10298063 -0.708
0.14711379 -0.10327153 -0.70999998
0.14866412 -0.10341699 -0.71100003
0.15000723 -0.10341699 -0.71100003
0.15177609 -0.10370789 -0.713
0.15312298 -0.10370789 -0.713
0.064838976 -0.10384833 -0.70499998
0.066076897 -0.10370103 -0.704
0.067406796 -0.10370103 -0.704
0.068639055 -0.10355373 -0.70300001
0.072688751 -0.1017861 -0.69099998
0.073887005 -0.10163879 -0.69
0.075190455 -0.10163879 -0.69
0.076493897 -0.10163879 -0.69
0.077571854 -0.1013442 -0.68800002
0.078871518 -0.1013442 -0.68800002
0.08017119 -0.1013442 -0.68800002
0.081470862 -0.1013442 -0.68800002
0.083011135 -0.10163879 -0.69
0.084314585 -0.10163879 -0.69
0.085618034 -0.10163879 -0.69
0.086921483 -0.10163879 -0.69
0.088352792 -0.1017861 -0.69099998
0.089658126 -0.1017861 -0.69099998
0.090963468 -0.1017861 -0.69099998
0.092535868 -0.10208071 -0.69300002
0.09384498 -0.10208071 -0.69300002
0.095154092 -0.10208071 -0.69300002
0.096463211 -0.10208071 -0.69300002
0.097772323 -0.10208071 -0.69300002
0.099224411 -0.10222801 -0.69400001
0.10053542 -0.10222801 -0.69400001
0.10184642 -0.10222801 -0.69400001
0.10315742 -0.10222801 -0.69400001
0.10461896 -0.10237531 -0.69499999
0.1062367 -0.10266992 -0.69700003
0.10755337 -0.10266992 -0.69700003
0.10887004 -0.10266992 -0.69700003
0.1103448 -0.10281722 -0.69800001
0.11166336 -0.10281722 -0.69800001
0.11298192 -0.10281722 -0.69800001
0.11462798 -0.10311182 -0.69999999
0.11595032 -0.10311182 -0.69999999
0.11727266 -0.10311182 -0.69999999
0.118595 -0.10311182 -0.69999999
0.12008864 -0.10325912 -0.70099998
0.12141287 -0.10325912 -0.70099998
0.12308728 -0.10355373 -0.70300001
0.12441529 -0.10355373 -0.70300001
0.12574328 -0.10355373 -0.70300001
0.12707129 -0.10355373 -0.70300001
0.12858194 -0.10370103 -0.704
0.12991184 -0.10370103 -0.704
0.13124174 -0.10370103 -0.704
0.13257162 -0.10370103 -0.704
0.13409172 -0.10384833 -0.70499998
0.13542351 -0.10384833 -0.70499998
0.13675529 -0.10384833 -0.70499998
0.13808708 -0.10384833 -0.70499998
0.13941886 -0.10384833 -0.70499998
0.14075063 -0.10384833 -0.70499998
0.1424855 -0.10414294 -0.70700002
0.14402448 -0.10429025 -0.708
0.14577256 -0.10458484 -0.70999998
0.147321 -0.10473216 -0.71100003
0.14866412 -0.10473216 -0.71100003
0.15000723 -0.10473216 -0.71100003
0.15177609 -0.10502676 -0.713
0.15333773 -0.10517406 -0.71399999
0.062175404 -0.1051524 -0.70499998
0.063507192 -0.1051524 -0.70499998
0.064838976 -0.1051524 -0.70499998
0.066076897 -0.10500325 -0.704
0.067311049 -0.1048541 -0.70300001
0.068639055 -0.1048541 -0.70300001
0.071590021 -0.10336258 -0.69300002
0.072688751 -0.10306427 -0.69099998
0.073887005 -0.10291512 -0.69
0.075190455 -0.10291512 -0.69
0.076493897 -0.10291512 -0.69
0.077797346 -0.10291512 -0.69
0.078871518 -0.10261682 -0.68800002
0.08017119 -0.10261682 -0.68800002
0.081707694 -0.10291512 -0.69
0.083011135 -0.10291512 -0.69
0.084314585 -0.10291512 -0.69
0.085742116 -0.10306427 -0.69099998
0.087047458 -0.10306427 -0.69099998
0.088352792 -0.10306427 -0.69099998
0.089658126 -0.10306427 -0.69099998
0.091226749 -0.10336258 -0.69300002
0.092535868 -0.10336258 -0.69300002
0.093980394 -0.10351173 -0.69400001
0.095291398 -0.10351173 -0.69400001
0.096602403 -0.10351173 -0.69400001
0.097913407 -0.10351173 -0.69400001
0.099367388 -0.10366088 -0.69499999
0.10068028 -0.10366088 -0.69499999
0.10199317 -0.10366088 -0.69499999
0.10360336 -0.10395919 -0.69700003
0.10492002 -0.10395919 -0.69700003
0.10638911 -0.10410834 -0.69800001
0.10770767 -0.10410834 -0.69800001
0.10902623 -0.10410834 -0.69800001
0.11066096 -0.10440664 -0.69999999
0.11198331 -0.10440664 -0.69999999
0.11330564 -0.10440664 -0.69999999
0.11462798 -0.10440664 -0.69999999
0.11595032 -0.10440664 -0.69999999
0.11744019 -0.10455579 -0.70099998
0.11876442 -0.10455579 -0.70099998
0.12043127 -0.1048541 -0.70300001
0.12175927 -0.1048541 -0.70300001
0.12326237 -0.10500325 -0.704
0.12459226 -0.10500325 -0.704
0.12592216 -0.10500325 -0.704
0.12725204 -0.10500325 -0.704
0.12858194 -0.10500325 -0.704
0.13009638 -0.1051524 -0.70499998
0.13142815 -0.1051524 -0.70499998
0.13275994 -0.1051524 -0.70499998
0.13409172 -0.1051524 -0.70499998
0.13542351 -0.1051524 -0.70499998
0.13675529 -0.1051524 -0.70499998
0.13847882 -0.10545071 -0.70700002
0.14001213 -0.10559986 -0.708
0.14134958 -0.10559986 -0.708
0.1430901 -0.10589816 -0.70999998
0.14443132 -0.10589816 -0.70999998
0.14597788 -0.10604732 -0.71100003
0.147321 -0.10604732 -0.71100003
0.14866412 -0.10604732 -0.71100003
0.15042919 -0.10634562 -0.713
0.15198895 -0.10649477 -0.71399999
0.15333773 -0.10649477 -0.71399999
0.058180057 -0.10645647 -0.70499998
0.05951184 -0.10645647 -0.70499998
0.060843624 -0.10645647 -0.70499998
0.062175404 -0.10645647 -0.70499998
0.063507192 -0.10645647 -0.70499998
0.064747006 -0.10630547 -0.704
0.066076897 -0.10630547 -0.704
0.067311049 -0.10615446 -0.70300001
0.068443775 -0.10585245 -0.70099998
0.069668479 -0.10570145 -0.69999999
0.070483737 -0.10494645 -0.69499999
0.071590021 -0.10464445 -0.69300002
0.072688751 -0.10434244 -0.69099998
0.073994085 -0.10434244 -0.69099998
0.075190455 -0.10419144 -0.69
0.076493897 -0.10419144 -0.69
0.077797346 -0.10419144 -0.69
0.079100795 -0.10419144 -0.69
0.080404244 -0.10419144 -0.69
0.081826106 -0.10434244 -0.69099998
0.08313144 -0.10434244 -0.69099998
0.084436782 -0.10434244 -0.69099998
0.085990287 -0.10464445 -0.69300002
0.087299407 -0.10464445 -0.69300002
0.088608518 -0.10464445 -0.69300002
0.089917637 -0.10464445 -0.69300002
0.091358386 -0.10479545 -0.69400001
0.09266939 -0.10479545 -0.69400001
0.093980394 -0.10479545 -0.69400001
0.095428705 -0.10494645 -0.69499999
0.096741602 -0.10494645 -0.69499999
0.098336667 -0.10524846 -0.69700003
0.099653341 -0.10524846 -0.69700003
0.10097001 -0.10524846 -0.69700003
0.10228668 -0.10524846 -0.69700003
0.10375199 -0.10539946 -0.69800001
0.10507055 -0.10539946 -0.69800001
0.10638911 -0.10539946 -0.69800001
0.10801629 -0.10570145 -0.69999999
0.10933863 -0.10570145 -0.69999999
0.11066096 -0.10570145 -0.69999999
0.11198331 -0.10570145 -0.69999999
0.11346751 -0.10585245 -0.70099998
0.11479173 -0.10585245 -0.70099998
0.11611596 -0.10585245 -0.70099998
0.11777525 -0.10615446 -0.70300001
0.11910326 -0.10615446 -0.70300001
0.12060258 -0.10630547 -0.704
0.12193247 -0.10630547 -0.704
0.12326237 -0.10630547 -0.704
0.12459226 -0.10630547 -0.704
0.12592216 -0.10630547 -0.704
0.12743281 -0.10645647 -0.70499998
0.12876458 -0.10645647 -0.70499998
0.13009638 -0.10645647 -0.70499998
0.13142815 -0.10645647 -0.70499998
0.13313657 -0.10675848 -0.70700002
0.13447213 -0.10675848 -0.70700002
0.13580769 -0.10675848 -0.70700002
0.13733722 -0.10690948 -0.708
0.13867468 -0.10690948 -0.708
0.14040764 -0.10721148 -0.70999998
0.14174888 -0.10721148 -0.70999998
0.14329164 -0.10736249 -0.71100003
0.14463477 -0.10736249 -0.71100003
0.14597788 -0.10736249 -0.71100003
0.1477354 -0.10766449 -0.713
0.14908229 -0.10766449 -0.713
0.15064016 -0.10781549 -0.71399999
0.15198895 -0.10781549 -0.71399999
0.15333773 -0.10781549 -0.71399999
0.056848273 -0.10776053 -0.70499998
0.058180057 -0.10776053 -0.70499998
0.05951184 -0.10776053 -0.70499998
0.060843624 -0.10776053 -0.70499998
0.062175404 -0.10776053 -0.70499998
0.063417107 -0.10760769 -0.704
0.064747006 -0.10760769 -0.704
0.066076897 -0.10760769 -0.704
0.067119546 -0.10714912 -0.70099998
0.068150863 -0.10669058 -0.69800001
0.069170848 -0.10623202 -0.69499999
0.070382327 -0.10607917 -0.69400001
0.071590021 -0.10592632 -0.69300002
0.072688751 -0.10562061 -0.69099998
0.073994085 -0.10562061 -0.69099998
0.075299419 -0.10562061 -0.69099998
0.076604761 -0.10562061 -0.69099998
0.077910095 -0.10562061 -0.69099998
0.07921543 -0.10562061 -0.69099998
0.080520771 -0.10562061 -0.69099998
0.081826106 -0.10562061 -0.69099998
0.083372056 -0.10592632 -0.69300002
0.084681176 -0.10592632 -0.69300002
0.085990287 -0.10592632 -0.69300002
0.087299407 -0.10592632 -0.69300002
0.088736378 -0.10607917 -0.69400001
0.090047382 -0.10607917 -0.69400001
0.091358386 -0.10607917 -0.69400001
0.092802919 -0.10623202 -0.69499999
0.094386652 -0.10653773 -0.69700003
0.095703326 -0.10653773 -0.69700003
0.09702 -0.10653773 -0.69700003
0.098477751 -0.10669058 -0.69800001
0.09979631 -0.10669058 -0.69800001
0.10111487 -0.10669058 -0.69800001
0.10243344 -0.10669058 -0.69800001
0.10375199 -0.10669058 -0.69800001
0.10507055 -0.10669058 -0.69800001
0.10669395 -0.10699628 -0.69999999
0.10801629 -0.10699628 -0.69999999
0.10933863 -0.10699628 -0.69999999
0.11081905 -0.10714912 -0.70099998
0.11214328 -0.10714912 -0.70099998
0.11379124 -0.10745484 -0.70300001
0.11511925 -0.10745484 -0.70300001
0.11644726 -0.10745484 -0.70300001
0.11794279 -0.10760769 -0.704
0.11927268 -0.10760769 -0.704
0.12060258 -0.10760769 -0.704
0.12193247 -0.10760769 -0.704
0.12343745 -0.10776053 -0.70499998
0.12476923 -0.10776053 -0.70499998
0.12610102 -0.10776053 -0.70499998
0.12743281 -0.10776053 -0.70499998
0.12876458 -0.10776053 -0.70499998
0.13046545 -0.10806625 -0.70700002
0.13180101 -0.10806625 -0.70700002
0.13332488 -0.10821909 -0.708
0.13466233 -0.10821909 -0.708
0.13599978 -0.10821909 -0.708
0.13772519 -0.10852479 -0.70999998
0.13906641 -0.10852479 -0.70999998
0.14040764 -0.10852479 -0.70999998
0.14194852 -0.10867765 -0.71100003
0.14329164 -0.10867765 -0.71100003
0.1450416 -0.10898335 -0.713
0.1463885 -0.10898335 -0.713
0.1479426 -0.1091362 -0.71399999
0.14929138 -0.1091362 -0.71399999
0.15064016 -0.1091362 -0.71399999
0.15198895 -0.1091362 -0.71399999
0.15376726 -0.10944191 -0.71600002
0.056848273 -0.1090646 -0.70499998
0.058180057 -0.1090646 -0.70499998
0.05951184 -0.1090646 -0.70499998
0.060843624 -0.1090646 -0.70499998
0.062087215 -0.1089099 -0.704
0.063417107 -0.1089099 -0.704
0.064747006 -0.1089099 -0.704
0.066076897 -0.1089099 -0.704
0.067119546 -0.10844579 -0.70099998
0.068150863 -0.1079817 -0.69800001
0.069170848 -0.10751759 -0.69499999
0.070382327 -0.10736289 -0.69400001
0.071590021 -0.10720818 -0.69300002
0.07289914 -0.10720818 -0.69300002
0.073994085 -0.10689878 -0.69099998
0.075299419 -0.10689878 -0.69099998
0.076604761 -0.10689878 -0.69099998
0.077910095 -0.10689878 -0.69099998
0.07921543 -0.10689878 -0.69099998
0.080753833 -0.10720818 -0.69300002
0.082062945 -0.10720818 -0.69300002
0.083372056 -0.10720818 -0.69300002
0.084681176 -0.10720818 -0.69300002
0.086114369 -0.10736289 -0.69400001
0.087425373 -0.10736289 -0.69400001
0.088736378 -0.10736289 -0.69400001
0.090177134 -0.10751759 -0.69499999
0.091753311 -0.10782699 -0.69700003
0.093069986 -0.10782699 -0.69700003
0.094386652 -0.10782699 -0.69700003
0.095840633 -0.1079817 -0.69800001
0.097159192 -0.1079817 -0.69800001
0.098477751 -0.1079817 -0.69800001
0.10008226 -0.1082911 -0.69999999
0.1014046 -0.1082911 -0.69999999
0.10272694 -0.1082911 -0.69999999
0.10404927 -0.1082911 -0.69999999
0.10537161 -0.1082911 -0.69999999
0.10669395 -0.1082911 -0.69999999
0.10801629 -0.1082911 -0.69999999
0.10949482 -0.10844579 -0.70099998
0.11113523 -0.1087552 -0.70300001
0.11246324 -0.1087552 -0.70300001
0.11379124 -0.1087552 -0.70300001
0.115283 -0.1089099 -0.704
0.1166129 -0.1089099 -0.704
0.11794279 -0.1089099 -0.704
0.11927268 -0.1089099 -0.704
0.12060258 -0.1089099 -0.704
0.12210567 -0.1090646 -0.70499998
0.12343745 -0.1090646 -0.70499998
0.12476923 -0.1090646 -0.70499998
0.12610102 -0.1090646 -0.70499998
0.12779433 -0.10937401 -0.70700002
0.12931253 -0.10952871 -0.708
0.13064997 -0.10952871 -0.708
0.13198742 -0.10952871 -0.708
0.1337015 -0.10983811 -0.70999998
0.13504273 -0.10983811 -0.70999998
0.13638395 -0.10983811 -0.70999998
0.13772519 -0.10983811 -0.70999998
0.13926229 -0.10999282 -0.71100003
0.1406054 -0.10999282 -0.71100003
0.14194852 -0.10999282 -0.71100003
0.14369471 -0.11030222 -0.713
0.1450416 -0.11030222 -0.713
0.14659381 -0.11045691 -0.71399999
0.1479426 -0.11045691 -0.71399999
0.14929138 -0.11045691 -0.71399999
0.15064016 -0.11045691 -0.71399999
0.15241469 -0.11076632 -0.71600002
0.15376726 -0.11076632 -0.71600002
0.062087215 -0.11021212 -0.704
0.063417107 -0.11021212 -0.704
0.064747006 -0.11021212 -0.704
0.065983042 -0.11005557 -0.70300001
0.067023799 -0.10958591 -0.69999999
0.068150863 -0.10927282 -0.69800001
0.069170848 -0.10880315 -0.69499999
0.070382327 -0.10864661 -0.69400001
0.071590021 -0.10849006 -0.69300002
0.07289914 -0.10849006 -0.69300002
0.074208252 -0.10849006 -0.69300002
0.075517371 -0.10849006 -0.69300002
0.076826483 -0.10849006 -0.69300002
0.078135602 -0.10849006 -0.69300002
0.079444714 -0.10849006 -0.69300002
0.080753833 -0.10849006 -0.69300002
0.082181357 -0.10864661 -0.69400001
0.083492361 -0.10864661 -0.69400001
0.084803365 -0.10864661 -0.69400001
0.086238451 -0.10880315 -0.69499999
0.087551348 -0.10880315 -0.69499999
0.089119971 -0.10911626 -0.69700003
0.090566389 -0.10927282 -0.69800001
0.091884948 -0.10927282 -0.69800001
0.093203507 -0.10927282 -0.69800001
0.094522074 -0.10927282 -0.69800001
0.095840633 -0.10927282 -0.69800001
0.097437583 -0.10958591 -0.69999999
0.098759919 -0.10958591 -0.69999999
0.10008226 -0.10958591 -0.69999999
0.1014046 -0.10958591 -0.69999999
0.10272694 -0.10958591 -0.69999999
0.10404927 -0.10958591 -0.69999999
0.10552214 -0.10974246 -0.70099998
0.10684637 -0.10974246 -0.70099998
0.10847922 -0.11005557 -0.70300001
0.10996342 -0.11021212 -0.704
0.11129332 -0.11021212 -0.704
0.11262321 -0.11021212 -0.704
0.11395311 -0.11021212 -0.704
0.115283 -0.11021212 -0.704
0.1166129 -0.11021212 -0.704
0.11794279 -0.11021212 -0.704
0.1194421 -0.11036867 -0.70499998
0.12077388 -0.11036867 -0.70499998
0.12210567 -0.11036867 -0.70499998
0.12378763 -0.11068177 -0.70700002
0.1251232 -0.11068177 -0.70700002
0.12663762 -0.11083832 -0.708
0.12797508 -0.11083832 -0.708
0.1296778 -0.11115143 -0.70999998
0.13101904 -0.11115143 -0.70999998
0.13236026 -0.11115143 -0.70999998
0.1337015 -0.11115143 -0.70999998
0.13523294 -0.11130798 -0.71100003
0.13657606 -0.11130798 -0.71100003
0.13791917 -0.11130798 -0.71100003
0.13926229 -0.11130798 -0.71100003
0.1406054 -0.11130798 -0.71100003
0.14234781 -0.11162108 -0.713
0.14369471 -0.11162108 -0.713
0.14524503 -0.11177763 -0.71399999
0.14659381 -0.11177763 -0.71399999
0.1479426 -0.11177763 -0.71399999
0.14970957 -0.11209074 -0.71600002
0.15106213 -0.11209074 -0.71600002
0.15241469 -0.11209074 -0.71600002
0.15398201 -0.11224729 -0.71700001
0.063417107 -0.11151434 -0.704
0.064655036 -0.11135594 -0.70300001
0.065701462 -0.11088073 -0.69999999
0.066832304 -0.11056393 -0.69800001
0.068053231 -0.11040553 -0.69700003
0.069170848 -0.11008873 -0.69499999
0.070382327 -0.10993033 -0.69400001
0.071693331 -0.10993033 -0.69400001
0.073004335 -0.10993033 -0.69400001
0.074315339 -0.10993033 -0.69400001
0.075626336 -0.10993033 -0.69400001
0.07693734 -0.10993033 -0.69400001
0.078135602 -0.10977193 -0.69300002
0.079444714 -0.10977193 -0.69300002
0.080870353 -0.10993033 -0.69400001
0.082181357 -0.10993033 -0.69400001
0.083492361 -0.10993033 -0.69400001
0.084925562 -0.11008873 -0.69499999
0.086238451 -0.11008873 -0.69499999
0.087803297 -0.11040553 -0.69700003
0.08924783 -0.11056393 -0.69800001
0.090566389 -0.11056393 -0.69800001
0.091884948 -0.11056393 -0.69800001
0.093203507 -0.11056393 -0.69800001
0.094792902 -0.11088073 -0.69999999
0.096115246 -0.11088073 -0.69999999
0.097437583 -0.11088073 -0.69999999
0.098901004 -0.11103913 -0.70099998
0.10022523 -0.11103913 -0.70099998
0.10154946 -0.11103913 -0.70099998
0.10287368 -0.11103913 -0.70099998
0.1044952 -0.11135594 -0.70300001
0.1058232 -0.11135594 -0.70300001
0.10730363 -0.11151434 -0.704
0.10863353 -0.11151434 -0.704
0.10996342 -0.11151434 -0.704
0.11129332 -0.11151434 -0.704
0.11278319 -0.11167274 -0.70499998
0.11411497 -0.11167274 -0.70499998
0.11544675 -0.11167274 -0.70499998
0.11677854 -0.11167274 -0.70499998
0.11811031 -0.11167274 -0.70499998
0.1194421 -0.11167274 -0.70499998
0.12077388 -0.11167274 -0.70499998
0.12245207 -0.11198954 -0.70700002
0.12378763 -0.11198954 -0.70700002
0.12530017 -0.11214794 -0.708
0.12699535 -0.11246474 -0.70999998
0.12833658 -0.11246474 -0.70999998
0.1296778 -0.11246474 -0.70999998
0.13101904 -0.11246474 -0.70999998
0.13236026 -0.11246474 -0.70999998
0.13388982 -0.11262315 -0.71100003
0.13523294 -0.11262315 -0.71100003
0.13657606 -0.11262315 -0.71100003
0.13791917 -0.11262315 -0.71100003
0.13965403 -0.11293995 -0.713
0.14100091 -0.11293995 -0.713
0.14234781 -0.11293995 -0.713
0.14389624 -0.11309835 -0.71399999
0.14565188 -0.11341515 -0.71600002
0.14700444 -0.11341515 -0.71600002
0.148357 -0.11341515 -0.71600002
0.14970957 -0.11341515 -0.71600002
0.15106213 -0.11341515 -0.71600002
0.15262757 -0.11357355 -0.71700001
0.15441152 -0.11389035 -0.71899998
0.063146867 -0.11233579 -0.70099998
0.064379126 -0.11217555 -0.69999999
0.065701462 -0.11217555 -0.69999999
0.066832304 -0.11185505 -0.69800001
0.068053231 -0.11169481 -0.69700003
0.069170848 -0.1113743 -0.69499999
0.070483737 -0.1113743 -0.69499999
0.071693331 -0.11121405 -0.69400001
0.073004335 -0.11121405 -0.69400001
0.074315339 -0.11121405 -0.69400001
0.075626336 -0.11121405 -0.69400001
0.07693734 -0.11121405 -0.69400001
0.078248344 -0.11121405 -0.69400001
0.079559349 -0.11121405 -0.69400001
0.080870353 -0.11121405 -0.69400001
0.082299776 -0.1113743 -0.69499999
0.083612666 -0.1113743 -0.69499999
0.085169956 -0.11169481 -0.69700003
0.08648663 -0.11169481 -0.69700003
0.087929271 -0.11185505 -0.69800001
0.08924783 -0.11185505 -0.69800001
0.090825893 -0.11217555 -0.69999999
0.092148229 -0.11217555 -0.69999999
0.093470566 -0.11217555 -0.69999999
0.094792902 -0.11217555 -0.69999999
0.096115246 -0.11217555 -0.69999999
0.097576775 -0.11233579 -0.70099998
0.098901004 -0.11233579 -0.70099998
0.10051119 -0.1126563 -0.70300001
0.10183919 -0.1126563 -0.70300001
0.1031672 -0.1126563 -0.70300001
0.10464384 -0.11281655 -0.704
0.10597374 -0.11281655 -0.704
0.10730363 -0.11281655 -0.704
0.10863353 -0.11281655 -0.704
0.11011962 -0.1129768 -0.70499998
0.1114514 -0.1129768 -0.70499998
0.11278319 -0.1129768 -0.70499998
0.11411497 -0.1129768 -0.70499998
0.11544675 -0.1129768 -0.70499998
0.11677854 -0.1129768 -0.70499998
0.11844539 -0.11329731 -0.70700002
0.11978095 -0.11329731 -0.70700002
0.12111651 -0.11329731 -0.70700002
0.12262527 -0.11345756 -0.708
0.12396272 -0.11345756 -0.708
0.12565412 -0.11377805 -0.70999998
0.12699535 -0.11377805 -0.70999998
0.12851734 -0.11393831 -0.71100003
0.12986046 -0.11393831 -0.71100003
0.13120358 -0.11393831 -0.71100003
0.13254669 -0.11393831 -0.71100003
0.13388982 -0.11393831 -0.71100003
0.13561334 -0.11425881 -0.713
0.13696022 -0.11425881 -0.713
0.13830712 -0.11425881 -0.713
0.13965403 -0.11425881 -0.713
0.14119866 -0.11441906 -0.71399999
0.14254746 -0.11441906 -0.71399999
0.14429931 -0.11473957 -0.71600002
0.14565188 -0.11473957 -0.71600002
0.14720976 -0.11489981 -0.71700001
0.1485642 -0.11489981 -0.71700001
0.14991866 -0.11489981 -0.71700001
0.15127312 -0.11489981 -0.71700001
0.1530533 -0.11522031 -0.71899998
0.15441152 -0.11522031 -0.71899998
0.061822638 -0.11363246 -0.70099998
0.063056782 -0.11347037 -0.69999999
0.064379126 -0.11347037 -0.69999999
0.065513745 -0.11314617 -0.69800001
0.066832304 -0.11314617 -0.69800001
0.068053231 -0.11298407 -0.69700003
0.069170848 -0.11265986 -0.69499999
0.070483737 -0.11265986 -0.69499999
0.071796633 -0.11265986 -0.69499999
0.073109522 -0.11265986 -0.69499999
0.074422419 -0.11265986 -0.69499999
0.075735308 -0.11265986 -0.69499999
0.077048205 -0.11265986 -0.69499999
0.078361094 -0.11265986 -0.69499999
0.079673991 -0.11265986 -0.69499999
0.08098688 -0.11265986 -0.69499999
0.082536615 -0.11298407 -0.69700003
0.083853282 -0.11298407 -0.69700003
0.085292146 -0.11314617 -0.69800001
0.086610712 -0.11314617 -0.69800001
0.087929271 -0.11314617 -0.69800001
0.089503549 -0.11347037 -0.69999999
0.090825893 -0.11347037 -0.69999999
0.092148229 -0.11347037 -0.69999999
0.093604095 -0.11363246 -0.70099998
0.094928324 -0.11363246 -0.70099998
0.096252546 -0.11363246 -0.70099998
0.097855173 -0.11395667 -0.70300001
0.099183179 -0.11395667 -0.70300001
0.10065416 -0.11411877 -0.704
0.10198405 -0.11411877 -0.704
0.10331395 -0.11411877 -0.704
0.10464384 -0.11411877 -0.704
0.10612427 -0.11428086 -0.70499998
0.10745605 -0.11428086 -0.70499998
0.10878783 -0.11428086 -0.70499998
0.11011962 -0.11428086 -0.70499998
0.1114514 -0.11428086 -0.70499998
0.11310314 -0.11460508 -0.70700002
0.11443871 -0.11460508 -0.70700002
0.11577427 -0.11460508 -0.70700002
0.11710983 -0.11460508 -0.70700002
0.11861292 -0.11476717 -0.708
0.11995037 -0.11476717 -0.708
0.12163044 -0.11509137 -0.70999998
0.12297167 -0.11509137 -0.70999998
0.12431289 -0.11509137 -0.70999998
0.12583111 -0.11525348 -0.71100003
0.12717423 -0.11525348 -0.71100003
0.12851734 -0.11525348 -0.71100003
0.12986046 -0.11525348 -0.71100003
0.13157265 -0.11557768 -0.713
0.13291954 -0.11557768 -0.713
