# .PCD v0.7 - Point Cloud Data file format
VERSION 0.7
FIELDS x y z
SIZE 4 4 4
TYPE F F F
COUNT 1 1 1
WIDTH 1302
HEIGHT 1
VIEWPOINT 0 0 0 1 0 0 0
POINTS 1302
DATA ascii
-0.049185831 -0.024713883 -0.71700001
-0.047831375 -0.024713883 -0.71700001
-0.046476923 -0.024713883 -0.71700001
-0.045122471 -0.024713883 -0.71700001
-0.04395115 -0.02481729 -0.72000003
-0.39887264 -0.032867968 -0.90499997
-0.39847964 -0.032976922 -0.90799999
-0.39676437 -0.032976922 -0.90799999
-0.3950491 -0.032976922 -0.90799999
-0.39420024 -0.033049561 -0.91000003
-0.39248121 -0.033049561 -0.91000003
-0.39205036 -0.033158511 -0.91299999
-0.39118072 -0.03323115 -0.91500002
-0.38945222 -0.03323115 -0.91500002
-0.38899496 -0.033340104 -0.91799998
-0.091555335 -0.026149102 -0.72000003
-0.090069935 -0.026112782 -0.71899998
-0.088711709 -0.026112782 -0.71899998
-0.087353475 -0.026112782 -0.71899998
-0.085995249 -0.026112782 -0.71899998
-0.084637016 -0.026112782 -0.71899998
-0.083278783 -0.026112782 -0.71899998
-0.081920557 -0.026112782 -0.71899998
-0.080562323 -0.026112782 -0.71899998
-0.079204097 -0.026112782 -0.71899998
-0.077845864 -0.026112782 -0.71899998
-0.076487631 -0.026112782 -0.71899998
-0.074920423 -0.026040146 -0.71700001
-0.073565967 -0.026040146 -0.71700001
-0.072211519 -0.026040146 -0.71700001
-0.070857063 -0.026040146 -0.71700001
-0.069405682 -0.026003828 -0.71600002
-0.068053119 -0.026003828 -0.71600002
-0.066700555 -0.026003828 -0.71600002
-0.065347992 -0.026003828 -0.71600002
-0.063995428 -0.026003828 -0.71600002
-0.062642865 -0.026003828 -0.71600002
-0.061290301 -0.026003828 -0.71600002
-0.059937738 -0.026003828 -0.71600002
-0.058585174 -0.026003828 -0.71600002
-0.057232611 -0.026003828 -0.71600002
-0.055880047 -0.026003828 -0.71600002
-0.054527484 -0.026003828 -0.71600002
-0.05317492 -0.026003828 -0.71600002
-0.051822357 -0.026003828 -0.71600002
-0.050540283 -0.026040146 -0.71700001
-0.049185831 -0.026040146 -0.71700001
-0.047831375 -0.026040146 -0.71700001
-0.046476923 -0.026040146 -0.71700001
-0.045122471 -0.026040146 -0.71700001
-0.043768018 -0.026040146 -0.71700001
-0.39887264 -0.034541979 -0.90499997
-0.39716306 -0.034541979 -0.90499997
-0.39676437 -0.034656487 -0.90799999
-0.3950491 -0.034656487 -0.90799999
-0.39333385 -0.034656487 -0.90799999
-0.39248121 -0.034732822 -0.91000003
-0.39205036 -0.034847327 -0.91299999
-0.39118072 -0.034923662 -0.91500002
-0.3907291 -0.035038166 -0.91799998
-0.091555335 -0.027480915 -0.72000003
-0.090069935 -0.027442746 -0.71899998
-0.088711709 -0.027442746 -0.71899998
-0.087353475 -0.027442746 -0.71899998
-0.085995249 -0.027442746 -0.71899998
-0.084637016 -0.027442746 -0.71899998
-0.083278783 -0.027442746 -0.71899998
-0.081920557 -0.027442746 -0.71899998
-0.080562323 -0.027442746 -0.71899998
-0.079204097 -0.027442746 -0.71899998
-0.077629328 -0.027366411 -0.71700001
-0.076274879 -0.027366411 -0.71700001
-0.074920423 -0.027366411 -0.71700001
-0.073565967 -0.027366411 -0.71700001
-0.072211519 -0.027366411 -0.71700001
-0.070857063 -0.027366411 -0.71700001
-0.069405682 -0.027328243 -0.71600002
-0.068053119 -0.027328243 -0.71600002
-0.066700555 -0.027328243 -0.71600002
-0.065347992 -0.027328243 -0.71600002
-0.063995428 -0.027328243 -0.71600002
-0.062642865 -0.027328243 -0.71600002
-0.061290301 -0.027328243 -0.71600002
-0.059937738 -0.027328243 -0.71600002
-0.058585174 -0.027328243 -0.71600002
-0.057232611 -0.027328243 -0.71600002
-0.055880047 -0.027328243 -0.71600002
-0.054527484 -0.027328243 -0.71600002
-0.05317492 -0.027328243 -0.71600002
-0.051822357 -0.027328243 -0.71600002
-0.050469793 -0.027328243 -0.71600002
-0.04911723 -0.027328243 -0.71600002
-0.047764666 -0.027328243 -0.71600002
-0.046412103 -0.027328243 -0.71600002
-0.045059539 -0.027328243 -0.71600002
-0.043706976 -0.027328243 -0.71600002
-0.042413566 -0.027366411 -0.71700001
-0.39887264 -0.036215995 -0.90499997
-0.39716306 -0.036215995 -0.90499997
-0.39676437 -0.036336049 -0.90799999
-0.3950491 -0.036336049 -0.90799999
-0.39333385 -0.036336049 -0.90799999
-0.39248121 -0.036416087 -0.91000003
-0.39205036 -0.036536139 -0.91299999
-0.39118072 -0.036616176 -0.91500002
-0.38945222 -0.036616176 -0.91500002
-0.091555335 -0.028812729 -0.72000003
-0.090069935 -0.028772708 -0.71899998
-0.088711709 -0.028772708 -0.71899998
-0.087353475 -0.028772708 -0.71899998
-0.085995249 -0.028772708 -0.71899998
-0.084637016 -0.028772708 -0.71899998
-0.083278783 -0.028772708 -0.71899998
-0.081920557 -0.028772708 -0.71899998
-0.080562323 -0.028772708 -0.71899998
-0.079204097 -0.028772708 -0.71899998
-0.077629328 -0.028692674 -0.71700001
-0.076274879 -0.028692674 -0.71700001
-0.074920423 -0.028692674 -0.71700001
-0.073565967 -0.028692674 -0.71700001
-0.072211519 -0.028692674 -0.71700001
-0.070857063 -0.028692674 -0.71700001
-0.069502614 -0.028692674 -0.71700001
-0.068053119 -0.028652657 -0.71600002
-0.066700555 -0.028652657 -0.71600002
-0.065347992 -0.028652657 -0.71600002
-0.063995428 -0.028652657 -0.71600002
-0.062642865 -0.028652657 -0.71600002
-0.061290301 -0.028652657 -0.71600002
-0.059937738 -0.028652657 -0.71600002
-0.058585174 -0.028652657 -0.71600002
-0.057232611 -0.028652657 -0.71600002
-0.055880047 -0.028652657 -0.71600002
-0.054527484 -0.028652657 -0.71600002
-0.05317492 -0.028652657 -0.71600002
-0.051822357 -0.028652657 -0.71600002
-0.050469793 -0.028652657 -0.71600002
-0.04911723 -0.028652657 -0.71600002
-0.047764666 -0.028652657 -0.71600002
-0.046412103 -0.028652657 -0.71600002
-0.045059539 -0.028652657 -0.71600002
-0.043706976 -0.028652657 -0.71600002
-0.042413566 -0.028692674 -0.71700001
-0.041230913 -0.028812729 -0.72000003
-0.39969701 -0.037806276 -0.903
-0.39887264 -0.03789001 -0.90499997
-0.39716306 -0.03789001 -0.90499997
-0.39676437 -0.038015615 -0.90799999
-0.3950491 -0.038015615 -0.90799999
-0.39333385 -0.038015615 -0.90799999
-0.39248121 -0.038099349 -0.91000003
-0.39205036 -0.03822495 -0.91299999
-0.091555335 -0.030144541 -0.72000003
-0.090195216 -0.030144541 -0.72000003
-0.088835098 -0.030144541 -0.72000003
-0.087353475 -0.030102672 -0.71899998
-0.085995249 -0.030102672 -0.71899998
-0.084637016 -0.030102672 -0.71899998
-0.083278783 -0.030102672 -0.71899998
-0.081920557 -0.030102672 -0.71899998
-0.080562323 -0.030102672 -0.71899998
-0.079204097 -0.030102672 -0.71899998
-0.077845864 -0.030102672 -0.71899998
-0.076274879 -0.030018939 -0.71700001
-0.074920423 -0.030018939 -0.71700001
-0.073565967 -0.030018939 -0.71700001
-0.072211519 -0.030018939 -0.71700001
-0.070857063 -0.030018939 -0.71700001
-0.069502614 -0.030018939 -0.71700001
-0.068148158 -0.030018939 -0.71700001
-0.066700555 -0.02997707 -0.71600002
-0.065347992 -0.02997707 -0.71600002
-0.063995428 -0.02997707 -0.71600002
-0.062642865 -0.02997707 -0.71600002
-0.061290301 -0.02997707 -0.71600002
-0.060021449 -0.030018939 -0.71700001
-0.058666997 -0.030018939 -0.71700001
-0.057312544 -0.030018939 -0.71700001
-0.055880047 -0.02997707 -0.71600002
-0.054527484 -0.02997707 -0.71600002
-0.05317492 -0.02997707 -0.71600002
-0.051822357 -0.02997707 -0.71600002
-0.050469793 -0.02997707 -0.71600002
-0.049185831 -0.030018939 -0.71700001
-0.047831375 -0.030018939 -0.71700001
-0.046476923 -0.030018939 -0.71700001
-0.045122471 -0.030018939 -0.71700001
-0.043768018 -0.030018939 -0.71700001
-0.042413566 -0.030018939 -0.71700001
-0.041230913 -0.030144541 -0.72000003
-0.39969701 -0.039476592 -0.903
-0.39887264 -0.039564025 -0.90499997
-0.39716306 -0.039564025 -0.90499997
-0.39676437 -0.039695177 -0.90799999
-0.3950491 -0.039695177 -0.90799999
-0.39333385 -0.039695177 -0.90799999
-0.39248121 -0.039782614 -0.91000003
-0.39205036 -0.039913762 -0.91299999
-0.10013179 -0.032044675 -0.73299998
-0.091555335 -0.031476352 -0.72000003
-0.090195216 -0.031476352 -0.72000003
-0.088835098 -0.031476352 -0.72000003
-0.087474972 -0.031476352 -0.72000003
-0.086114854 -0.031476352 -0.72000003
-0.084637016 -0.031432636 -0.71899998
-0.083278783 -0.031432636 -0.71899998
-0.081920557 -0.031432636 -0.71899998
-0.080562323 -0.031432636 -0.71899998
-0.079204097 -0.031432636 -0.71899998
-0.077845864 -0.031432636 -0.71899998
-0.076487631 -0.031432636 -0.71899998
-0.075129405 -0.031432636 -0.71899998
-0.073771171 -0.031432636 -0.71899998
-0.072211519 -0.0313452 -0.71700001
-0.070857063 -0.0313452 -0.71700001
-0.069502614 -0.0313452 -0.71700001
-0.068148158 -0.0313452 -0.71700001
-0.06679371 -0.0313452 -0.71700001
-0.065439254 -0.0313452 -0.71700001
-0.064084806 -0.0313452 -0.71700001
-0.06273035 -0.0313452 -0.71700001
-0.061375901 -0.0313452 -0.71700001
-0.060021449 -0.0313452 -0.71700001
-0.058666997 -0.0313452 -0.71700001
-0.057312544 -0.0313452 -0.71700001
-0.055958092 -0.0313452 -0.71700001
-0.05460364 -0.0313452 -0.71700001
-0.053249188 -0.0313452 -0.71700001
-0.051894736 -0.0313452 -0.71700001
-0.050540283 -0.0313452 -0.71700001
-0.049185831 -0.0313452 -0.71700001
-0.047831375 -0.0313452 -0.71700001
-0.046476923 -0.0313452 -0.71700001
-0.045122471 -0.0313452 -0.71700001
-0.043768018 -0.0313452 -0.71700001
-0.042531874 -0.031432636 -0.71899998
-0.04134544 -0.031563789 -0.722
-0.39969701 -0.041146908 -0.903
-0.39887264 -0.04123804 -0.90499997
-0.39716306 -0.04123804 -0.90499997
-0.39545345 -0.04123804 -0.90499997
-0.3950491 -0.041374743 -0.90799999
-0.39333385 -0.041374743 -0.90799999
-0.39248121 -0.041465878 -0.91000003
-0.10151647 -0.033400536 -0.73299998
-0.099858589 -0.0333094 -0.73100001
-0.098477691 -0.0333094 -0.73100001
-0.096963964 -0.033263836 -0.73000002
-0.0933026 -0.032944866 -0.72299999
-0.091809653 -0.032899298 -0.722
-0.090195216 -0.032808166 -0.72000003
-0.088835098 -0.032808166 -0.72000003
-0.087474972 -0.032808166 -0.72000003
-0.086114854 -0.032808166 -0.72000003
-0.084754735 -0.032808166 -0.72000003
-0.083394617 -0.032808166 -0.72000003
-0.082034498 -0.032808166 -0.72000003
-0.08067438 -0.032808166 -0.72000003
-0.079314262 -0.032808166 -0.72000003
-0.077954136 -0.032808166 -0.72000003
-0.076594017 -0.032808166 -0.72000003
-0.075233899 -0.032808166 -0.72000003
-0.073771171 -0.032762598 -0.71899998
-0.072412945 -0.032762598 -0.71899998
-0.071054712 -0.032762598 -0.71899998
-0.069502614 -0.032671466 -0.71700001
-0.068148158 -0.032671466 -0.71700001
-0.06679371 -0.032671466 -0.71700001
-0.065439254 -0.032671466 -0.71700001
-0.064084806 -0.032671466 -0.71700001
-0.06273035 -0.032671466 -0.71700001
-0.061375901 -0.032671466 -0.71700001
-0.060021449 -0.032671466 -0.71700001
-0.058666997 -0.032671466 -0.71700001
-0.057312544 -0.032671466 -0.71700001
-0.055958092 -0.032671466 -0.71700001
-0.05460364 -0.032671466 -0.71700001
-0.053249188 -0.032671466 -0.71700001
-0.051894736 -0.032671466 -0.71700001
-0.050540283 -0.032671466 -0.71700001
-0.049185831 -0.032671466 -0.71700001
-0.047831375 -0.032671466 -0.71700001
-0.046476923 -0.032671466 -0.71700001
-0.045122471 -0.032671466 -0.71700001
-0.043768018 -0.032671466 -0.71700001
-0.042591032 -0.032808166 -0.72000003
-0.04134544 -0.032899298 -0.722
-0.04003692 -0.032944866 -0.72299999
-0.39969701 -0.042817224 -0.903
-0.39799118 -0.042817224 -0.903
-0.39716306 -0.042912055 -0.90499997
-0.39545345 -0.042912055 -0.90499997
-0.3950491 -0.043054305 -0.90799999
-0.39420024 -0.04314914 -0.91000003
-0.10304154 -0.034803811 -0.73400003
-0.10151647 -0.034756392 -0.73299998
-0.099858589 -0.034661561 -0.73100001
-0.098342977 -0.034614146 -0.73000002
-0.096963964 -0.034614146 -0.73000002
-0.095061198 -0.03442448 -0.72600001
-0.0933026 -0.034282226 -0.72299999
-0.091809653 -0.034234811 -0.722
-0.090445757 -0.034234811 -0.722
-0.089081854 -0.034234811 -0.722
-0.087717958 -0.034234811 -0.722
-0.086354062 -0.034234811 -0.722
-0.084754735 -0.03413998 -0.72000003
-0.083394617 -0.03413998 -0.72000003
-0.082262367 -0.034234811 -0.722
-0.080898471 -0.034234811 -0.722
-0.079534575 -0.034234811 -0.722
-0.078170672 -0.034234811 -0.722
-0.076806776 -0.034234811 -0.722
-0.075233899 -0.03413998 -0.72000003
-0.073873781 -0.03413998 -0.72000003
-0.072513662 -0.03413998 -0.72000003
-0.071054712 -0.03409256 -0.71899998
-0.069696479 -0.03409256 -0.71899998
-0.068338253 -0.03409256 -0.71899998
-0.066980019 -0.03409256 -0.71899998
-0.065621793 -0.03409256 -0.71899998
-0.06426356 -0.03409256 -0.71899998
-0.062905334 -0.03409256 -0.71899998
-0.061547101 -0.03409256 -0.71899998
-0.060188871 -0.03409256 -0.71899998
-0.058830637 -0.03409256 -0.71899998
-0.057472408 -0.03409256 -0.71899998
-0.056114178 -0.03409256 -0.71899998
-0.05460364 -0.033997729 -0.71700001
-0.053249188 -0.033997729 -0.71700001
-0.052039485 -0.03409256 -0.71899998
-0.050681256 -0.03409256 -0.71899998
-0.049323026 -0.03409256 -0.71899998
-0.047964796 -0.03409256 -0.71899998
-0.046606567 -0.03409256 -0.71899998
-0.045122471 -0.033997729 -0.71700001
-0.043890104 -0.03409256 -0.71899998
-0.042591032 -0.03413998 -0.72000003
-0.04134544 -0.034234811 -0.722
-0.04003692 -0.034282226 -0.72299999
-0.038778108 -0.034377065 -0.72500002
-0.3991802 -0.044241205 -0.898
-0.39881176 -0.044389006 -0.90100002
-0.39799118 -0.04448754 -0.903
-0.39628536 -0.04448754 -0.903
-0.39545345 -0.04458607 -0.90499997
-0.3950491 -0.044733871 -0.90799999
-0.10442811 -0.036161523 -0.73400003
-0.10304154 -0.036161523 -0.73400003
-0.10151647 -0.036112253 -0.73299998
-0.099858589 -0.036013722 -0.73100001
-0.098342977 -0.035964455 -0.73000002
-0.096698307 -0.035865922 -0.72799999
-0.095061198 -0.035767391 -0.72600001
-0.0933026 -0.03561959 -0.72299999
-0.091936812 -0.03561959 -0.72299999
-0.090445757 -0.035570323 -0.722
-0.089081854 -0.035570323 -0.722
-0.087717958 -0.035570323 -0.722
-0.086354062 -0.035570323 -0.722
-0.084990166 -0.035570323 -0.722
-0.083626263 -0.035570323 -0.722
-0.082262367 -0.035570323 -0.722
-0.080898471 -0.035570323 -0.722
-0.079534575 -0.035570323 -0.722
-0.078170672 -0.035570323 -0.722
-0.076806776 -0.035570323 -0.722
-0.07544288 -0.035570323 -0.722
-0.074078985 -0.035570323 -0.722
-0.072513662 -0.035471793 -0.72000003
-0.071153544 -0.035471793 -0.72000003
-0.069793426 -0.035471793 -0.72000003
-0.0684333 -0.035471793 -0.72000003
-0.066980019 -0.035422523 -0.71899998
-0.065621793 -0.035422523 -0.71899998
-0.06426356 -0.035422523 -0.71899998
-0.062905334 -0.035422523 -0.71899998
-0.061547101 -0.035422523 -0.71899998
-0.060188871 -0.035422523 -0.71899998
-0.058830637 -0.035422523 -0.71899998
-0.057472408 -0.035422523 -0.71899998
-0.056114178 -0.035422523 -0.71899998
-0.054755948 -0.035422523 -0.71899998
-0.053397719 -0.035422523 -0.71899998
-0.052039485 -0.035422523 -0.71899998
-0.050751749 -0.035471793 -0.72000003
-0.049391631 -0.035471793 -0.72000003
-0.048031509 -0.035471793 -0.72000003
-0.046606567 -0.035422523 -0.71899998
-0.045248337 -0.035422523 -0.71899998
-0.04395115 -0.035471793 -0.72000003
-0.042709339 -0.035570323 -0.722
-0.041402705 -0.03561959 -0.72299999
-0.04003692 -0.03561959 -0.72299999
-0.038778108 -0.035718124 -0.72500002
-0.39998376 -0.045800041 -0.89600003
-0.3991802 -0.045902275 -0.898
-0.39748383 -0.045902275 -0.898
-0.39710972 -0.046055622 -0.90100002
-0.39628536 -0.046157852 -0.903
-0.39545345 -0.046260085 -0.90499997
-0.10428583 -0.037468113 -0.73299998
-0.10290115 -0.037468113 -0.73299998
-0.10123949 -0.037365884 -0.73100001
-0.099858589 -0.037365884 -0.73100001
-0.098342977 -0.037314765 -0.73000002
-0.096698307 -0.037212532 -0.72799999
-0.095061198 -0.037110303 -0.72600001
-0.093560703 -0.037059188 -0.72500002
-0.091936812 -0.036956951 -0.72299999
-0.090571024 -0.036956951 -0.72299999
-0.089205235 -0.036956951 -0.72299999
-0.087839447 -0.036956951 -0.72299999
-0.086354062 -0.036905836 -0.722
-0.084990166 -0.036905836 -0.722
-0.083626263 -0.036905836 -0.722
-0.082262367 -0.036905836 -0.722
-0.080898471 -0.036905836 -0.722
-0.079534575 -0.036905836 -0.722
-0.078170672 -0.036905836 -0.722
-0.076806776 -0.036905836 -0.722
-0.07544288 -0.036905836 -0.722
-0.074078985 -0.036905836 -0.722
-0.072715089 -0.036905836 -0.722
-0.071351185 -0.036905836 -0.722
-0.06998729 -0.036905836 -0.722
-0.068623394 -0.036905836 -0.722
-0.067073181 -0.036803607 -0.72000003
-0.065713063 -0.036803607 -0.72000003
-0.064352944 -0.036803607 -0.72000003
-0.062992826 -0.036803607 -0.72000003
-0.061632704 -0.036803607 -0.72000003
-0.060272586 -0.036803607 -0.72000003
-0.058912467 -0.036803607 -0.72000003
-0.057552345 -0.036803607 -0.72000003
-0.056192227 -0.036803607 -0.72000003
-0.054832108 -0.036803607 -0.72000003
-0.053471986 -0.036803607 -0.72000003
-0.052111868 -0.036803607 -0.72000003
-0.050892726 -0.036905836 -0.722
-0.049528826 -0.036905836 -0.722
-0.04816493 -0.036905836 -0.722
-0.046801031 -0.036905836 -0.722
-0.045437135 -0.036905836 -0.722
-0.044073235 -0.036905836 -0.722
-0.042768493 -0.036956951 -0.72299999
-0.041402705 -0.036956951 -0.72299999
-0.04003692 -0.036956951 -0.72299999
-0.038778108 -0.037059188 -0.72500002
-0.037408542 -0.037059188 -0.72500002
-0.39998376 -0.047457408 -0.89600003
-0.3991802 -0.047563341 -0.898
-0.39748383 -0.047563341 -0.898
-0.39710972 -0.047722239 -0.90100002
-0.39628536 -0.047828168 -0.903
-0.39457956 -0.047828168 -0.903
-0.1056705 -0.038823973 -0.73299998
-0.10428583 -0.038823973 -0.73299998
-0.10290115 -0.038823973 -0.73299998
-0.10123949 -0.038718041 -0.73100001
-0.099858589 -0.038718041 -0.73100001
-0.098342977 -0.038665079 -0.73000002
-0.096698307 -0.038559143 -0.72799999
-0.095061198 -0.038453214 -0.72600001
-0.093560703 -0.038400248 -0.72500002
-0.092191137 -0.038400248 -0.72500002
-0.090571024 -0.038294315 -0.72299999
-0.089205235 -0.038294315 -0.72299999
-0.087839447 -0.038294315 -0.72299999
-0.086473666 -0.038294315 -0.72299999
-0.085107878 -0.038294315 -0.72299999
-0.08374209 -0.038294315 -0.72299999
-0.082376301 -0.038294315 -0.72299999
-0.08101052 -0.038294315 -0.72299999
-0.079644732 -0.038294315 -0.72299999
-0.078278944 -0.038294315 -0.72299999
-0.076913156 -0.038294315 -0.72299999
-0.075547367 -0.038294315 -0.72299999
-0.074181587 -0.038294315 -0.72299999
-0.072715089 -0.038241349 -0.722
-0.071351185 -0.038241349 -0.722
-0.06998729 -0.038241349 -0.722
-0.068623394 -0.038241349 -0.722
-0.067259498 -0.038241349 -0.722
-0.065895595 -0.038241349 -0.722
-0.064531699 -0.038241349 -0.722
-0.063167803 -0.038241349 -0.722
-0.061803903 -0.038241349 -0.722
-0.060440008 -0.038241349 -0.722
-0.059076108 -0.038241349 -0.722
-0.057712212 -0.038241349 -0.722
-0.056348313 -0.038241349 -0.722
-0.054984417 -0.038241349 -0.722
-0.053620521 -0.038241349 -0.722
-0.052256621 -0.038241349 -0.722
-0.050892726 -0.038241349 -0.722
-0.049528826 -0.038241349 -0.722
-0.04816493 -0.038241349 -0.722
-0.046865851 -0.038294315 -0.72299999
-0.045500066 -0.038294315 -0.72299999
-0.044134278 -0.038294315 -0.72299999
-0.042768493 -0.038294315 -0.72299999
-0.041402705 -0.038294315 -0.72299999
-0.040147673 -0.038400248 -0.72500002
-0.038778108 -0.038400248 -0.72500002
-0.037408542 -0.038400248 -0.72500002
-0.39998376 -0.049114779 -0.89600003
-0.39829117 -0.049114779 -0.89600003
-0.39748383 -0.049224406 -0.898
-0.39710972 -0.049388856 -0.90100002
-0.39628536 -0.049498484 -0.903
-0.1056705 -0.04017983 -0.73299998
-0.10428583 -0.04017983 -0.73299998
-0.10290115 -0.04017983 -0.73299998
-0.10123949 -0.040070202 -0.73100001
-0.099721983 -0.040015388 -0.73000002
-0.098342977 -0.040015388 -0.73000002
-0.096698307 -0.039905753 -0.72799999
-0.095323071 -0.039905753 -0.72799999
-0.093689747 -0.039796125 -0.72600001
-0.092191137 -0.039741311 -0.72500002
-0.090821572 -0.039741311 -0.72500002
-0.089452006 -0.039741311 -0.72500002
-0.087839447 -0.039631676 -0.72299999
-0.086473666 -0.039631676 -0.72299999
-0.085107878 -0.039631676 -0.72299999
-0.08374209 -0.039631676 -0.72299999
-0.082376301 -0.039631676 -0.72299999
-0.08101052 -0.039631676 -0.72299999
-0.079644732 -0.039631676 -0.72299999
-0.078278944 -0.039631676 -0.72299999
-0.076913156 -0.039631676 -0.72299999
-0.075547367 -0.039631676 -0.72299999
-0.074181587 -0.039631676 -0.72299999
-0.072815798 -0.039631676 -0.72299999
-0.07145001 -0.039631676 -0.72299999
-0.070084222 -0.039631676 -0.72299999
-0.068623394 -0.039576862 -0.722
-0.067259498 -0.039576862 -0.722
-0.065895595 -0.039576862 -0.722
-0.064531699 -0.039576862 -0.722
-0.063167803 -0.039576862 -0.722
-0.061803903 -0.039576862 -0.722
-0.060440008 -0.039576862 -0.722
-0.05915793 -0.039631676 -0.72299999
-0.057792146 -0.039631676 -0.72299999
-0.056426357 -0.039631676 -0.72299999
-0.055060573 -0.039631676 -0.72299999
-0.053694785 -0.039631676 -0.72299999
-0.052328996 -0.039631676 -0.72299999
-0.050963212 -0.039631676 -0.72299999
-0.049597424 -0.039631676 -0.72299999
-0.048231639 -0.039631676 -0.72299999
-0.046865851 -0.039631676 -0.72299999
-0.045500066 -0.039631676 -0.72299999
-0.044134278 -0.039631676 -0.72299999
-0.042768493 -0.039631676 -0.72299999
-0.041517239 -0.039741311 -0.72500002
-0.040147673 -0.039741311 -0.72500002
-0.038778108 -0.039741311 -0.72500002
-0.037408542 -0.039741311 -0.72500002
-0.39998376 -0.050772145 -0.89600003
-0.39829117 -0.050772145 -0.89600003
-0.39659858 -0.050772145 -0.89600003
-0.39710972 -0.051055469 -0.90100002
-0.1056705 -0.04153569 -0.73299998
-0.10428583 -0.04153569 -0.73299998
-0.10262039 -0.041422363 -0.73100001
-0.101101 -0.041365698 -0.73000002
-0.099721983 -0.041365698 -0.73000002
-0.098342977 -0.041365698 -0.73000002
-0.096698307 -0.041252363 -0.72799999
-0.095323071 -0.041252363 -0.72799999
-0.093947843 -0.041252363 -0.72799999
-0.092318296 -0.041139036 -0.72600001
-0.090946838 -0.041139036 -0.72600001
-0.089575388 -0.041139036 -0.72600001
-0.08808244 -0.041082371 -0.72500002
-0.086712874 -0.041082371 -0.72500002
-0.085343309 -0.041082371 -0.72500002
-0.083973743 -0.041082371 -0.72500002
-0.082604185 -0.041082371 -0.72500002
-0.081234619 -0.041082371 -0.72500002
-0.079865053 -0.041082371 -0.72500002
-0.078495488 -0.041082371 -0.72500002
-0.077125922 -0.041082371 -0.72500002
-0.075756356 -0.041082371 -0.72500002
-0.07438679 -0.041082371 -0.72500002
-0.073017225 -0.041082371 -0.72500002
-0.071647666 -0.041082371 -0.72500002
-0.070084222 -0.04096904 -0.72299999
-0.068718441 -0.04096904 -0.72299999
-0.067352653 -0.04096904 -0.72299999
-0.065986864 -0.04096904 -0.72299999
-0.064621076 -0.04096904 -0.72299999
-0.063255288 -0.04096904 -0.72299999
-0.061889503 -0.04096904 -0.72299999
-0.060523719 -0.04096904 -0.72299999
-0.05915793 -0.04096904 -0.72299999
-0.057792146 -0.04096904 -0.72299999
-0.056426357 -0.04096904 -0.72299999
-0.055060573 -0.04096904 -0.72299999
-0.053694785 -0.04096904 -0.72299999
-0.052328996 -0.04096904 -0.72299999
-0.050963212 -0.04096904 -0.72299999
-0.049597424 -0.04096904 -0.72299999
-0.048231639 -0.04096904 -0.72299999
-0.046865851 -0.04096904 -0.72299999
-0.045625933 -0.041082371 -0.72500002
-0.044256367 -0.041082371 -0.72500002
-0.042886801 -0.041082371 -0.72500002
-0.041517239 -0.041082371 -0.72500002
-0.040147673 -0.041082371 -0.72500002
-0.038778108 -0.041082371 -0.72500002
-0.037408542 -0.041082371 -0.72500002
-0.03603898 -0.041082371 -0.72500002
-0.39909095 -0.052312478 -0.89399999
-0.39829117 -0.052429512 -0.89600003
-0.39659858 -0.052429512 -0.89600003
-0.1056705 -0.042891551 -0.73299998
-0.10428583 -0.042891551 -0.73299998
-0.10262039 -0.042774521 -0.73100001
-0.101101 -0.042716008 -0.73000002
-0.099721983 -0.042716008 -0.73000002
-0.098342977 -0.042716008 -0.73000002
-0.096698307 -0.042598974 -0.72799999
-0.095323071 -0.042598974 -0.72799999
-0.093947843 -0.042598974 -0.72799999
-0.092572607 -0.042598974 -0.72799999
-0.091197379 -0.042598974 -0.72799999
-0.089822143 -0.042598974 -0.72799999
-0.088203929 -0.042481948 -0.72600001
-0.086832479 -0.042481948 -0.72600001
-0.08546102 -0.042481948 -0.72600001
-0.08408957 -0.042481948 -0.72600001
-0.082718119 -0.042481948 -0.72600001
-0.081346661 -0.042481948 -0.72600001
-0.079865053 -0.042423435 -0.72500002
-0.078495488 -0.042423435 -0.72500002
-0.077125922 -0.042423435 -0.72500002
-0.075756356 -0.042423435 -0.72500002
-0.07438679 -0.042423435 -0.72500002
-0.073017225 -0.042423435 -0.72500002
-0.071647666 -0.042423435 -0.72500002
-0.070278101 -0.042423435 -0.72500002
-0.068908535 -0.042423435 -0.72500002
-0.067538969 -0.042423435 -0.72500002
-0.066169403 -0.042423435 -0.72500002
-0.064799838 -0.042423435 -0.72500002
-0.063430272 -0.042423435 -0.72500002
-0.06206071 -0.042423435 -0.72500002
-0.060691144 -0.042423435 -0.72500002
-0.059321579 -0.042423435 -0.72500002
-0.057952017 -0.042423435 -0.72500002
-0.056582451 -0.042423435 -0.72500002
-0.055212885 -0.042423435 -0.72500002
-0.053843319 -0.042423435 -0.72500002
-0.052473757 -0.042423435 -0.72500002
-0.051104192 -0.042423435 -0.72500002
-0.049734626 -0.042423435 -0.72500002
-0.04836506 -0.042423435 -0.72500002
-0.046995498 -0.042423435 -0.72500002
-0.045625933 -0.042423435 -0.72500002
-0.044317409 -0.042481948 -0.72600001
-0.042945955 -0.042481948 -0.72600001
-0.041574501 -0.042481948 -0.72600001
-0.04020305 -0.042481948 -0.72600001
-0.038831595 -0.042481948 -0.72600001
-0.037460141 -0.042481948 -0.72600001
-0.036088686 -0.042481948 -0.72600001
-0.034717232 -0.042481948 -0.72600001
-0.39909095 -0.053966146 -0.89399999
-0.39829117 -0.054086879 -0.89600003
-0.39659858 -0.054086879 -0.89600003
-0.1056705 -0.044247411 -0.73299998
-0.10428583 -0.044247411 -0.73299998
-0.10262039 -0.044126682 -0.73100001
-0.101101 -0.044066317 -0.73000002
-0.099721983 -0.044066317 -0.73000002
-0.098342977 -0.044066317 -0.73000002
-0.096963964 -0.044066317 -0.73000002
-0.095323071 -0.043945588 -0.72799999
-0.093947843 -0.043945588 -0.72799999
-0.092572607 -0.043945588 -0.72799999
-0.091197379 -0.043945588 -0.72799999
-0.089822143 -0.043945588 -0.72799999
-0.088446915 -0.043945588 -0.72799999
-0.08707168 -0.043945588 -0.72799999
-0.085696451 -0.043945588 -0.72799999
-0.08408957 -0.043824859 -0.72600001
-0.082718119 -0.043824859 -0.72600001
-0.081346661 -0.043824859 -0.72600001
-0.07997521 -0.043824859 -0.72600001
-0.078603752 -0.043824859 -0.72600001
-0.077232301 -0.043824859 -0.72600001
-0.075860851 -0.043824859 -0.72600001
-0.074489392 -0.043824859 -0.72600001
-0.073117942 -0.043824859 -0.72600001
-0.071746483 -0.043824859 -0.72600001
-0.070375033 -0.043824859 -0.72600001
-0.069003582 -0.043824859 -0.72600001
-0.067632124 -0.043824859 -0.72600001
-0.066260673 -0.043824859 -0.72600001
-0.064889215 -0.043824859 -0.72600001
-0.063517764 -0.043824859 -0.72600001
-0.06214631 -0.043824859 -0.72600001
-0.060774855 -0.043824859 -0.72600001
-0.059403401 -0.043824859 -0.72600001
-0.058031946 -0.043824859 -0.72600001
-0.056660496 -0.043824859 -0.72600001
-0.055289041 -0.043824859 -0.72600001
-0.053917587 -0.043824859 -0.72600001
-0.052546132 -0.043824859 -0.72600001
-0.051174678 -0.043824859 -0.72600001
-0.049803223 -0.043824859 -0.72600001
-0.048431773 -0.043824859 -0.72600001
-0.047060318 -0.043824859 -0.72600001
-0.045688864 -0.043824859 -0.72600001
-0.044317409 -0.043824859 -0.72600001
-0.042945955 -0.043824859 -0.72600001
-0.041574501 -0.043824859 -0.72600001
-0.04020305 -0.043824859 -0.72600001
-0.038831595 -0.043824859 -0.72600001
-0.037460141 -0.043824859 -0.72600001
-0.036088686 -0.043824859 -0.72600001
-0.034717232 -0.043824859 -0.72600001
-0.033345778 -0.043824859 -0.72600001
-0.39909095 -0.055619814 -0.89399999
-0.39829117 -0.055744246 -0.89600003
-0.39659858 -0.055744246 -0.89600003
-0.10428583 -0.045603272 -0.73299998
-0.10290115 -0.045603272 -0.73299998
-0.10123949 -0.045478843 -0.73100001
-0.099721983 -0.045416627 -0.73000002
-0.098342977 -0.045416627 -0.73000002
-0.096963964 -0.045416627 -0.73000002
-0.095584951 -0.045416627 -0.73000002
-0.094205946 -0.045416627 -0.73000002
-0.092572607 -0.045292199 -0.72799999
-0.091197379 -0.045292199 -0.72799999
-0.089822143 -0.045292199 -0.72799999
-0.088446915 -0.045292199 -0.72799999
-0.08707168 -0.045292199 -0.72799999
-0.085696451 -0.045292199 -0.72799999
-0.084321216 -0.045292199 -0.72799999
-0.082945988 -0.045292199 -0.72799999
-0.081570752 -0.045292199 -0.72799999
-0.080195524 -0.045292199 -0.72799999
-0.078820288 -0.045292199 -0.72799999
-0.07744506 -0.045292199 -0.72799999
-0.076069824 -0.045292199 -0.72799999
-0.074694596 -0.045292199 -0.72799999
-0.073319361 -0.045292199 -0.72799999
-0.071944132 -0.045292199 -0.72799999
-0.070568897 -0.045292199 -0.72799999
-0.069193669 -0.045292199 -0.72799999
-0.067818433 -0.045292199 -0.72799999
-0.066443205 -0.045292199 -0.72799999
-0.065067969 -0.045292199 -0.72799999
-0.063692741 -0.045292199 -0.72799999
-0.062317509 -0.045292199 -0.72799999
-0.060942277 -0.045292199 -0.72799999
-0.059403401 -0.04516777 -0.72600001
-0.058191814 -0.045292199 -0.72799999
-0.056816582 -0.045292199 -0.72799999
-0.05544135 -0.045292199 -0.72799999
-0.054066118 -0.045292199 -0.72799999
-0.052690886 -0.045292199 -0.72799999
-0.051315654 -0.045292199 -0.72799999
-0.049940422 -0.045292199 -0.72799999
-0.04856519 -0.045292199 -0.72799999
-0.047189958 -0.045292199 -0.72799999
-0.045814727 -0.045292199 -0.72799999
-0.044439495 -0.045292199 -0.72799999
-0.043064263 -0.045292199 -0.72799999
-0.041689031 -0.045292199 -0.72799999
-0.04020305 -0.04516777 -0.72600001
-0.038831595 -0.04516777 -0.72600001
-0.037460141 -0.04516777 -0.72600001
-0.036088686 -0.04516777 -0.72600001
-0.034717232 -0.04516777 -0.72600001
-0.033437639 -0.045292199 -0.72799999
-0.029996427 -0.046349846 -0.745
-0.028589081 -0.046349846 -0.745
-0.027181735 -0.046349846 -0.745
-0.02577439 -0.046349846 -0.745
-0.39909095 -0.057273481 -0.89399999
-0.39829117 -0.057401612 -0.89600003
-0.39659858 -0.057401612 -0.89600003
-0.10624715 -0.047215387 -0.73699999
-0.10442811 -0.047023196 -0.73400003
-0.10290115 -0.046959128 -0.73299998
-0.10151647 -0.046959128 -0.73299998
-0.099858589 -0.046831001 -0.73100001
-0.098477691 -0.046831001 -0.73100001
-0.096963964 -0.046766941 -0.73000002
-0.095584951 -0.046766941 -0.73000002
-0.094205946 -0.046766941 -0.73000002
-0.092826933 -0.046766941 -0.73000002
-0.091447927 -0.046766941 -0.73000002
-0.090068914 -0.046766941 -0.73000002
-0.088689908 -0.046766941 -0.73000002
-0.087310895 -0.046766941 -0.73000002
-0.085696451 -0.046638809 -0.72799999
-0.084321216 -0.046638809 -0.72799999
-0.082945988 -0.046638809 -0.72799999
-0.081570752 -0.046638809 -0.72799999
-0.080195524 -0.046638809 -0.72799999
-0.078820288 -0.046638809 -0.72799999
-0.07744506 -0.046638809 -0.72799999
-0.076069824 -0.046638809 -0.72799999
-0.074694596 -0.046638809 -0.72799999
-0.073319361 -0.046638809 -0.72799999
-0.072141781 -0.046766941 -0.73000002
-0.070762776 -0.046766941 -0.73000002
-0.069383763 -0.046766941 -0.73000002
-0.068004757 -0.046766941 -0.73000002
-0.066443205 -0.046638809 -0.72799999
-0.065067969 -0.046638809 -0.72799999
-0.063692741 -0.046638809 -0.72799999
-0.062317509 -0.046638809 -0.72799999
-0.060942277 -0.046638809 -0.72799999
-0.059567045 -0.046638809 -0.72799999
-0.058191814 -0.046638809 -0.72799999
-0.056816582 -0.046638809 -0.72799999
-0.05544135 -0.046638809 -0.72799999
-0.054066118 -0.046638809 -0.72799999
-0.052690886 -0.046638809 -0.72799999
-0.051315654 -0.046638809 -0.72799999
-0.049940422 -0.046638809 -0.72799999
-0.04856519 -0.046638809 -0.72799999
-0.047189958 -0.046638809 -0.72799999
-0.045814727 -0.046638809 -0.72799999
-0.044439495 -0.046638809 -0.72799999
-0.043064263 -0.046638809 -0.72799999
-0.041689031 -0.046638809 -0.72799999
-0.040313799 -0.046638809 -0.72799999
-0.038938567 -0.046638809 -0.72799999
-0.037563335 -0.046638809 -0.72799999
-0.036188103 -0.046638809 -0.72799999
-0.034812871 -0.046638809 -0.72799999
-0.029996427 -0.047727901 -0.745
-0.028589081 -0.047727901 -0.745
-0.027181735 -0.047727901 -0.745
-0.02577439 -0.047727901 -0.745
-0.024367044 -0.047727901 -0.745
-0.39998376 -0.059058979 -0.89600003
-0.39829117 -0.059058979 -0.89600003
-0.39748383 -0.059190806 -0.898
-0.10822359 -0.048842303 -0.741
-0.106103 -0.048512731 -0.736
-0.10442811 -0.048380908 -0.73400003
-0.10304154 -0.048380908 -0.73400003
-0.10151647 -0.048314989 -0.73299998
-0.10013179 -0.048314989 -0.73299998
-0.098477691 -0.048183162 -0.73100001
-0.097096793 -0.048183162 -0.73100001
-0.095715895 -0.048183162 -0.73100001
-0.094205946 -0.04811725 -0.73000002
-0.092826933 -0.04811725 -0.73000002
-0.091447927 -0.04811725 -0.73000002
-0.090068914 -0.04811725 -0.73000002
-0.088689908 -0.04811725 -0.73000002
-0.087310895 -0.04811725 -0.73000002
-0.085931882 -0.04811725 -0.73000002
-0.084552877 -0.04811725 -0.73000002
-0.083173864 -0.04811725 -0.73000002
-0.081794858 -0.04811725 -0.73000002
-0.080415845 -0.04811725 -0.73000002
-0.079036832 -0.04811725 -0.73000002
-0.077657826 -0.04811725 -0.73000002
-0.076278813 -0.04811725 -0.73000002
-0.074899808 -0.04811725 -0.73000002
-0.073520795 -0.04811725 -0.73000002
-0.072141781 -0.04811725 -0.73000002
-0.070762776 -0.04811725 -0.73000002
-0.069383763 -0.04811725 -0.73000002
-0.068004757 -0.04811725 -0.73000002
-0.066625744 -0.04811725 -0.73000002
-0.065246731 -0.04811725 -0.73000002
-0.063867725 -0.04811725 -0.73000002
-0.062488712 -0.04811725 -0.73000002
-0.060942277 -0.04798542 -0.72799999
-0.059567045 -0.04798542 -0.72799999
-0.058191814 -0.04798542 -0.72799999
-0.056816582 -0.04798542 -0.72799999
-0.05544135 -0.04798542 -0.72799999
-0.054066118 -0.04798542 -0.72799999
-0.052690886 -0.04798542 -0.72799999
-0.051315654 -0.04798542 -0.72799999
-0.049940422 -0.04798542 -0.72799999
-0.048698612 -0.04811725 -0.73000002
-0.047319602 -0.04811725 -0.73000002
-0.045940593 -0.04811725 -0.73000002
-0.044561584 -0.04811725 -0.73000002
-0.043182574 -0.04811725 -0.73000002
-0.041803565 -0.04811725 -0.73000002
-0.040313799 -0.04798542 -0.72799999
-0.038938567 -0.04798542 -0.72799999
-0.037563335 -0.04798542 -0.72799999
-0.036188103 -0.04798542 -0.72799999
-0.034956332 -0.048183162 -0.73100001
-0.033805087 -0.048512731 -0.736
-0.029956164 -0.049040046 -0.74400002
-0.028550707 -0.049040046 -0.74400002
-0.02714525 -0.049040046 -0.74400002
-0.025739793 -0.049040046 -0.74400002
-0.024367044 -0.049105957 -0.745
-0.39998376 -0.060716346 -0.89600003
-0.39829117 -0.060716346 -0.89600003
-0.39748383 -0.060851872 -0.898
-0.10962338 -0.050212961 -0.741
-0.10793149 -0.050077435 -0.73900002
-0.106103 -0.049874142 -0.736
-0.10471265 -0.049874142 -0.736
-0.10304154 -0.049738616 -0.73400003
-0.10165498 -0.049738616 -0.73400003
-0.10013179 -0.049670849 -0.73299998
-0.098747119 -0.049670849 -0.73299998
-0.097096793 -0.049535323 -0.73100001
-0.095715895 -0.049535323 -0.73100001
-0.09433499 -0.049535323 -0.73100001
-0.092954092 -0.049535323 -0.73100001
-0.091573194 -0.049535323 -0.73100001
-0.090192296 -0.049535323 -0.73100001
-0.088811398 -0.049535323 -0.73100001
-0.087430499 -0.049535323 -0.73100001
-0.086049601 -0.049535323 -0.73100001
-0.084668696 -0.049535323 -0.73100001
-0.083287798 -0.049535323 -0.73100001
-0.0819069 -0.049535323 -0.73100001
-0.080526002 -0.049535323 -0.73100001
-0.079145104 -0.049535323 -0.73100001
-0.077764206 -0.049535323 -0.73100001
-0.076383308 -0.049535323 -0.73100001
-0.075002402 -0.049535323 -0.73100001
-0.073621504 -0.049535323 -0.73100001
-0.072240606 -0.049535323 -0.73100001
-0.070859708 -0.049535323 -0.73100001
-0.06947881 -0.049535323 -0.73100001
-0.068097912 -0.049535323 -0.73100001
-0.066717014 -0.049535323 -0.73100001
-0.065246731 -0.04946756 -0.73000002
-0.063867725 -0.04946756 -0.73000002
-0.062488712 -0.04946756 -0.73000002
-0.061109703 -0.04946756 -0.73000002
-0.059730694 -0.04946756 -0.73000002
-0.058351684 -0.04946756 -0.73000002
-0.056972675 -0.04946756 -0.73000002
-0.055593662 -0.04946756 -0.73000002
-0.054214653 -0.04946756 -0.73000002
-0.052835643 -0.04946756 -0.73000002
-0.051456634 -0.04946756 -0.73000002
-0.050077625 -0.04946756 -0.73000002
-0.048698612 -0.04946756 -0.73000002
-0.047319602 -0.04946756 -0.73000002
-0.045940593 -0.04946756 -0.73000002
-0.044561584 -0.04946756 -0.73000002
-0.043182574 -0.04946756 -0.73000002
-0.041803565 -0.04946756 -0.73000002
-0.040424552 -0.04946756 -0.73000002
-0.039045542 -0.04946756 -0.73000002
-0.037666533 -0.04946756 -0.73000002
-0.03633723 -0.049535323 -0.73100001
-0.035051972 -0.049670849 -0.73299998
-0.033713225 -0.049738616 -0.73400003
-0.032414742 -0.049874142 -0.736
-0.03106655 -0.049941905 -0.73699999
-0.029835371 -0.050212961 -0.741
-0.028473957 -0.050280724 -0.74199998
-0.027072277 -0.050280724 -0.74199998
-0.025670599 -0.050280724 -0.74199998
-0.024268921 -0.050280724 -0.74199998
-0.022867242 -0.050280724 -0.74199998
-0.39998376 -0.062373716 -0.89600003
-0.39829117 -0.062373716 -0.89600003
-0.11102317 -0.051583618 -0.741
-0.10962338 -0.051583618 -0.741
-0.10793149 -0.051444393 -0.73900002
-0.10624715 -0.051305164 -0.73699999
-0.10471265 -0.051235549 -0.736
-0.1033223 -0.051235549 -0.736
-0.10165498 -0.051096324 -0.73400003
-0.10026841 -0.051096324 -0.73400003
-0.098881841 -0.051096324 -0.73400003
-0.097362444 -0.051026709 -0.73299998
-0.095977768 -0.051026709 -0.73299998
-0.094593085 -0.051026709 -0.73299998
-0.09320841 -0.051026709 -0.73299998
-0.091823734 -0.051026709 -0.73299998
-0.090439059 -0.051026709 -0.73299998
-0.089054376 -0.051026709 -0.73299998
-0.0876697 -0.051026709 -0.73299998
-0.086285025 -0.051026709 -0.73299998
-0.084900349 -0.051026709 -0.73299998
-0.083515674 -0.051026709 -0.73299998
-0.082130991 -0.051026709 -0.73299998
-0.08085648 -0.051096324 -0.73400003
-0.079469912 -0.051096324 -0.73400003
-0.078083344 -0.051096324 -0.73400003
-0.076592281 -0.051026709 -0.73299998
-0.075207606 -0.051026709 -0.73299998
-0.07382293 -0.051026709 -0.73299998
-0.072438255 -0.051026709 -0.73299998
-0.071053579 -0.051026709 -0.73299998
-0.069668896 -0.051026709 -0.73299998
-0.068284221 -0.051026709 -0.73299998
-0.066899545 -0.051026709 -0.73299998
-0.065336108 -0.050887484 -0.73100001
-0.06395521 -0.050887484 -0.73100001
-0.062574312 -0.050887484 -0.73100001
-0.061109703 -0.05081787 -0.73000002
-0.059730694 -0.05081787 -0.73000002
-0.058351684 -0.05081787 -0.73000002
-0.056972675 -0.05081787 -0.73000002
-0.055593662 -0.05081787 -0.73000002
-0.054214653 -0.05081787 -0.73000002
-0.052835643 -0.05081787 -0.73000002
-0.051456634 -0.05081787 -0.73000002
-0.050146222 -0.050887484 -0.73100001
-0.048765324 -0.050887484 -0.73100001
-0.047384422 -0.050887484 -0.73100001
-0.046003524 -0.050887484 -0.73100001
-0.044622626 -0.050887484 -0.73100001
-0.043241728 -0.050887484 -0.73100001
-0.041860826 -0.050887484 -0.73100001
-0.040479928 -0.050887484 -0.73100001
-0.03909903 -0.050887484 -0.73100001
-0.037821326 -0.051026709 -0.73299998
-0.036436647 -0.051026709 -0.73299998
-0.035099793 -0.051096324 -0.73400003
-0.033713225 -0.051096324 -0.73400003
-0.032414742 -0.051235549 -0.736
-0.031024398 -0.051235549 -0.736
-0.029674318 -0.051305164 -0.73699999
-0.028435582 -0.051583618 -0.741
-0.027072277 -0.051653229 -0.74199998
-0.025670599 -0.051653229 -0.74199998
-0.024268921 -0.051653229 -0.74199998
-0.022682332 -0.051235549 -0.736
-0.021465564 -0.051653229 -0.74199998
-0.39909095 -0.063888155 -0.89399999
-0.11242296 -0.052954275 -0.741
-0.11102317 -0.052954275 -0.741
-0.10962338 -0.052954275 -0.741
-0.10822359 -0.052954275 -0.741
-0.10653548 -0.052811351 -0.73900002
-0.10485492 -0.052668422 -0.73699999
-0.1033223 -0.05259696 -0.736
-0.10193196 -0.05259696 -0.736
-0.10054161 -0.05259696 -0.736
-0.098881841 -0.052454032 -0.73400003
-0.097495273 -0.052454032 -0.73400003
-0.096108712 -0.052454032 -0.73400003
-0.094722144 -0.052454032 -0.73400003
-0.093335576 -0.052454032 -0.73400003
-0.091949008 -0.052454032 -0.73400003
-0.09056244 -0.052454032 -0.73400003
-0.08917588 -0.052454032 -0.73400003
-0.087789312 -0.052454032 -0.73400003
-0.086402744 -0.052454032 -0.73400003
-0.085016176 -0.052454032 -0.73400003
-0.083629616 -0.052454032 -0.73400003
-0.082243048 -0.052454032 -0.73400003
-0.08085648 -0.052454032 -0.73400003
-0.079469912 -0.052454032 -0.73400003
-0.078083344 -0.052454032 -0.73400003
-0.076696783 -0.052454032 -0.73400003
-0.075310215 -0.052454032 -0.73400003
-0.073923647 -0.052454032 -0.73400003
-0.072537079 -0.052454032 -0.73400003
-0.071150519 -0.052454032 -0.73400003
-0.069763951 -0.052454032 -0.73400003
-0.068377383 -0.052454032 -0.73400003
-0.066990815 -0.052454032 -0.73400003
-0.06551487 -0.052382566 -0.73299998
-0.064130187 -0.052382566 -0.73299998
-0.062574312 -0.052239642 -0.73100001
-0.061193414 -0.052239642 -0.73100001
-0.059812516 -0.052239642 -0.73100001
-0.058431618 -0.052239642 -0.73100001
-0.057050716 -0.052239642 -0.73100001
-0.055669818 -0.052239642 -0.73100001
-0.05428892 -0.052239642 -0.73100001
-0.052908022 -0.052239642 -0.73100001
-0.051668096 -0.052382566 -0.73299998
-0.050283421 -0.052382566 -0.73299998
-0.048898742 -0.052382566 -0.73299998
-0.047514066 -0.052382566 -0.73299998
-0.046129387 -0.052382566 -0.73299998
-0.044744711 -0.052382566 -0.73299998
-0.043360032 -0.052382566 -0.73299998
-0.041975357 -0.052382566 -0.73299998
-0.040590677 -0.052382566 -0.73299998
-0.039206002 -0.052382566 -0.73299998
-0.037872925 -0.052454032 -0.73400003
-0.036486357 -0.052454032 -0.73400003
-0.035099793 -0.052454032 -0.73400003
-0.033713225 -0.052454032 -0.73400003
-0.032414742 -0.05259696 -0.736
-0.031024398 -0.05259696 -0.736
-0.029634055 -0.05259696 -0.736
-0.028358834 -0.052811351 -0.73900002
-0.027035793 -0.052954275 -0.741
-0.025636002 -0.052954275 -0.741
-0.024236213 -0.052954275 -0.741
-0.022682332 -0.05259696 -0.736
-0.021320917 -0.052668422 -0.73699999
-0.39943483 -0.065321878 -0.89099997
-0.39909095 -0.065541819 -0.89399999
-0.11242296 -0.054324932 -0.741
-0.11102317 -0.054324932 -0.741
-0.10962338 -0.054324932 -0.741
-0.10822359 -0.054324932 -0.741
-0.10653548 -0.054178309 -0.73900002
-0.10513947 -0.054178309 -0.73900002
-0.10346269 -0.054031678 -0.73699999
-0.10193196 -0.053958368 -0.736
-0.10054161 -0.053958368 -0.736
-0.099151269 -0.053958368 -0.736
-0.097760923 -0.053958368 -0.736
-0.096108712 -0.053811744 -0.73400003
-0.094722144 -0.053811744 -0.73400003
-0.093335576 -0.053811744 -0.73400003
-0.092199549 -0.053958368 -0.736
-0.090809204 -0.053958368 -0.736
-0.089418858 -0.053958368 -0.736
-0.088028513 -0.053958368 -0.736
-0.086638175 -0.053958368 -0.736
-0.08524783 -0.053958368 -0.736
-0.083857484 -0.053958368 -0.736
-0.082467139 -0.053958368 -0.736
-0.081076793 -0.053958368 -0.736
-0.079686448 -0.053958368 -0.736
-0.078296103 -0.053958368 -0.736
-0.076905765 -0.053958368 -0.736
-0.075515419 -0.053958368 -0.736
-0.073923647 -0.053811744 -0.73400003
-0.072537079 -0.053811744 -0.73400003
-0.071150519 -0.053811744 -0.73400003
-0.069763951 -0.053811744 -0.73400003
-0.068377383 -0.053811744 -0.73400003
-0.066990815 -0.053811744 -0.73400003
-0.065604255 -0.053811744 -0.73400003
-0.064217687 -0.053811744 -0.73400003
-0.062745512 -0.053738426 -0.73299998
-0.061360836 -0.053738426 -0.73299998
-0.059976161 -0.053738426 -0.73299998
-0.058591481 -0.053738426 -0.73299998
-0.057206806 -0.053738426 -0.73299998
-0.055822127 -0.053738426 -0.73299998
-0.054437451 -0.053738426 -0.73299998
-0.053125154 -0.053811744 -0.73400003
-0.051738586 -0.053811744 -0.73400003
-0.050352022 -0.053811744 -0.73400003
-0.048965454 -0.053811744 -0.73400003
-0.04757889 -0.053811744 -0.73400003
-0.046192322 -0.053811744 -0.73400003
-0.044805758 -0.053811744 -0.73400003
-0.04341919 -0.053811744 -0.73400003
-0.042032626 -0.053811744 -0.73400003
-0.040646058 -0.053811744 -0.73400003
-0.039259493 -0.053811744 -0.73400003
-0.037872925 -0.053811744 -0.73400003
-0.036486357 -0.053811744 -0.73400003
-0.035099793 -0.053811744 -0.73400003
-0.033713225 -0.053811744 -0.73400003
-0.032414742 -0.053958368 -0.736
-0.031024398 -0.053958368 -0.736
-0.029634055 -0.053958368 -0.736
-0.028358834 -0.054178309 -0.73900002
-0.026962822 -0.054178309 -0.73900002
-0.025636002 -0.054324932 -0.741
-0.024170799 -0.054178309 -0.73900002
-0.022774788 -0.054178309 -0.73900002
-0.021320917 -0.054031678 -0.73699999
-0.019982764 -0.054178309 -0.73900002
-0.39943483 -0.066969998 -0.89099997
-0.39909095 -0.06719549 -0.89399999
-0.11382275 -0.05569559 -0.741
-0.11242296 -0.05569559 -0.741
-0.11102317 -0.05569559 -0.741
-0.10962338 -0.05569559 -0.741
-0.10822359 -0.05569559 -0.741
-0.1068238 -0.05569559 -0.741
-0.10513947 -0.055545267 -0.73900002
-0.10374346 -0.055545267 -0.73900002
-0.10234745 -0.055545267 -0.73900002
-0.10067822 -0.055394936 -0.73699999
-0.099285983 -0.055394936 -0.73699999
-0.097893752 -0.055394936 -0.73699999
-0.096370585 -0.055319775 -0.736
-0.09498024 -0.055319775 -0.736
-0.093589894 -0.055319775 -0.736
-0.092199549 -0.055319775 -0.736
-0.090932585 -0.055394936 -0.73699999
-0.089540355 -0.055394936 -0.73699999
-0.088148117 -0.055394936 -0.73699999
-0.086755887 -0.055394936 -0.73699999
-0.08524783 -0.055319775 -0.736
-0.083857484 -0.055319775 -0.736
-0.082467139 -0.055319775 -0.736
-0.081076793 -0.055319775 -0.736
-0.079686448 -0.055319775 -0.736
-0.078296103 -0.055319775 -0.736
-0.076905765 -0.055319775 -0.736
-0.075515419 -0.055319775 -0.736
-0.074125074 -0.055319775 -0.736
-0.072734728 -0.055319775 -0.736
-0.071344383 -0.055319775 -0.736
-0.069954038 -0.055319775 -0.736
-0.068377383 -0.055169452 -0.73400003
-0.066990815 -0.055169452 -0.73400003
-0.065604255 -0.055169452 -0.73400003
-0.064217687 -0.055169452 -0.73400003
-0.062831119 -0.055169452 -0.73400003
-0.061444551 -0.055169452 -0.73400003
-0.060057987 -0.055169452 -0.73400003
-0.058671419 -0.055169452 -0.73400003
-0.057284854 -0.055169452 -0.73400003
-0.055898286 -0.055169452 -0.73400003
-0.054511722 -0.055169452 -0.73400003
-0.053125154 -0.055169452 -0.73400003
-0.051738586 -0.055169452 -0.73400003
-0.050352022 -0.055169452 -0.73400003
-0.048965454 -0.055169452 -0.73400003
-0.04757889 -0.055169452 -0.73400003
-0.046192322 -0.055169452 -0.73400003
-0.044805758 -0.055169452 -0.73400003
-0.04341919 -0.055169452 -0.73400003
-0.042032626 -0.055169452 -0.73400003
-0.040646058 -0.055169452 -0.73400003
-0.039259493 -0.055169452 -0.73400003
-0.037872925 -0.055169452 -0.73400003
-0.036585774 -0.055319775 -0.736
-0.035195433 -0.055319775 -0.736
-0.033805087 -0.055319775 -0.736
-0.032414742 -0.055319775 -0.736
-0.031024398 -0.055319775 -0.736
-0.029634055 -0.055319775 -0.736
-0.028282084 -0.055394936 -0.73699999
-0.026962822 -0.055545267 -0.73900002
-0.025566811 -0.055545267 -0.73900002
-0.024170799 -0.055545267 -0.73900002
-0.022774788 -0.055545267 -0.73900002
-0.021320917 -0.055394936 -0.73699999
-0.019928683 -0.055394936 -0.73699999
-0.11382275 -0.057066247 -0.741
-0.11242296 -0.057066247 -0.741
-0.11102317 -0.057066247 -0.741
-0.10977132 -0.05714326 -0.74199998
-0.10822359 -0.057066247 -0.741
-0.1068238 -0.057066247 -0.741
-0.10542401 -0.057066247 -0.741
-0.10402422 -0.057066247 -0.741
-0.10262443 -0.057066247 -0.741
-0.10095143 -0.056912225 -0.73900002
-0.099555425 -0.056912225 -0.73900002
-0.09815941 -0.056912225 -0.73900002
-0.096763402 -0.056912225 -0.73900002
-0.095367387 -0.056912225 -0.73900002
-0.093971379 -0.056912225 -0.73900002
-0.092575364 -0.056912225 -0.73900002
-0.091179356 -0.056912225 -0.73900002
-0.089783341 -0.056912225 -0.73900002
-0.088387333 -0.056912225 -0.73900002
-0.086991318 -0.056912225 -0.73900002
-0.085363649 -0.056758195 -0.73699999
-0.083971418 -0.056758195 -0.73699999
-0.082579188 -0.056758195 -0.73699999
-0.08118695 -0.056758195 -0.73699999
-0.07979472 -0.056758195 -0.73699999
-0.078402482 -0.056758195 -0.73699999
-0.077010252 -0.056758195 -0.73699999
-0.075618021 -0.056758195 -0.73699999
-0.074125074 -0.056681186 -0.736
-0.072734728 -0.056681186 -0.736
-0.071344383 -0.056681186 -0.736
-0.069954038 -0.056681186 -0.736
-0.068563692 -0.056681186 -0.736
-0.067173354 -0.056681186 -0.736
-0.065783009 -0.056681186 -0.736
-0.064392664 -0.056681186 -0.736
-0.063002318 -0.056681186 -0.736
-0.061611973 -0.056681186 -0.736
-0.060221631 -0.056681186 -0.736
-0.058831286 -0.056681186 -0.736
-0.05744094 -0.056681186 -0.736
-0.056050595 -0.056681186 -0.736
-0.054660253 -0.056681186 -0.736
-0.053269908 -0.056681186 -0.736
-0.051879562 -0.056681186 -0.736
-0.050489221 -0.056681186 -0.736
-0.049098875 -0.056681186 -0.736
-0.04770853 -0.056681186 -0.736
-0.046318185 -0.056681186 -0.736
-0.044927843 -0.056681186 -0.736
-0.043537498 -0.056681186 -0.736
-0.042147152 -0.056681186 -0.736
-0.04075681 -0.056681186 -0.736
-0.039366465 -0.056681186 -0.736
-0.03797612 -0.056681186 -0.736
