# .PCD v0.7 - Point Cloud Data file format
VERSION 0.7
FIELDS x y z
SIZE 4 4 4
TYPE F F F
COUNT 1 1 1
WIDTH 1371
HEIGHT 1
VIEWPOINT 0 0 0 1 0 0 0
POINTS 1371
DATA ascii
-0.1555766 -0.12619206 -0.65200001
-0.15434493 -0.12619206 -0.65200001
-0.15311328 -0.12619206 -0.65200001
-0.15188161 -0.12619206 -0.65200001
-0.15064995 -0.12619206 -0.65200001
-0.14964744 -0.12638561 -0.653
-0.14864117 -0.12657915 -0.65399998
-0.14740573 -0.12657915 -0.65399998
-0.14617029 -0.12657915 -0.65399998
-0.14515646 -0.1267727 -0.65499997
-0.14391913 -0.1267727 -0.65499997
-0.14268179 -0.1267727 -0.65499997
-0.14144446 -0.1267727 -0.65499997
-0.14020714 -0.1267727 -0.65499997
-0.13939415 -0.12715979 -0.65700001
-0.13815303 -0.12715979 -0.65700001
-0.13691193 -0.12715979 -0.65700001
-0.13587731 -0.12735334 -0.65799999
-0.13483892 -0.12754688 -0.65899998
-0.13242111 -0.13006298 -0.67199999
-0.13115166 -0.13006298 -0.67199999
-0.13007548 -0.13025653 -0.67299998
-0.20327227 -0.12642112 -0.64700001
-0.20142546 -0.12603033 -0.64499998
-0.20020702 -0.12603033 -0.64499998
-0.19898859 -0.12603033 -0.64499998
-0.19746353 -0.12583493 -0.64399999
-0.19624698 -0.12583493 -0.64399999
-0.19503042 -0.12583493 -0.64399999
-0.19351293 -0.12563953 -0.64300001
-0.19229826 -0.12563953 -0.64300001
-0.1910836 -0.12563953 -0.64300001
-0.18986894 -0.12563953 -0.64300001
-0.18836088 -0.12544414 -0.64200002
-0.18714811 -0.12544414 -0.64200002
-0.18593533 -0.12544414 -0.64200002
-0.18501028 -0.12563953 -0.64300001
-0.18379563 -0.12563953 -0.64300001
-0.18258096 -0.12563953 -0.64300001
-0.18136631 -0.12563953 -0.64300001
-0.18015164 -0.12563953 -0.64300001
-0.17921525 -0.12583493 -0.64399999
-0.17799871 -0.12583493 -0.64399999
-0.17705666 -0.12603033 -0.64499998
-0.17583822 -0.12603033 -0.64499998
-0.17461978 -0.12603033 -0.64499998
-0.17340134 -0.12603033 -0.64499998
-0.1721829 -0.12603033 -0.64499998
-0.17149459 -0.12642112 -0.64700001
-0.17027237 -0.12642112 -0.64700001
-0.16905016 -0.12642112 -0.64700001
-0.16782793 -0.12642112 -0.64700001
-0.16660571 -0.12642112 -0.64700001
-0.1656391 -0.12661651 -0.648
-0.164415 -0.12661651 -0.648
-0.16344273 -0.12681191 -0.64899999
-0.16221674 -0.12681191 -0.64899999
-0.16123879 -0.12700729 -0.64999998
-0.1600109 -0.12700729 -0.64999998
-0.1592716 -0.12739809 -0.65200001
-0.15803993 -0.12739809 -0.65200001
-0.15680827 -0.12739809 -0.65200001
-0.1555766 -0.12739809 -0.65200001
-0.15434493 -0.12739809 -0.65200001
-0.15311328 -0.12739809 -0.65200001
-0.15211456 -0.12759349 -0.653
-0.15111205 -0.12778889 -0.65399998
-0.14987661 -0.12778889 -0.65399998
-0.14886846 -0.12798427 -0.65499997
-0.14763112 -0.12798427 -0.65499997
-0.14639379 -0.12798427 -0.65499997
-0.14515646 -0.12798427 -0.65499997
-0.14391913 -0.12798427 -0.65499997
-0.14268179 -0.12798427 -0.65499997
-0.14144446 -0.12798427 -0.65499997
-0.14063525 -0.12837507 -0.65700001
-0.13939415 -0.12837507 -0.65700001
-0.13815303 -0.12837507 -0.65700001
-0.13712032 -0.12857047 -0.65799999
-0.13608381 -0.12876587 -0.65899998
-0.13504355 -0.12896127 -0.66000003
-0.13369055 -0.13130601 -0.67199999
-0.13242111 -0.13130601 -0.67199999
-0.13115166 -0.13130601 -0.67199999
-0.12988222 -0.13130601 -0.67199999
-0.12861277 -0.13130601 -0.67199999
-0.2026439 -0.1272234 -0.64499998
-0.20142546 -0.1272234 -0.64499998
-0.20020702 -0.1272234 -0.64499998
-0.19898859 -0.1272234 -0.64499998
-0.19746353 -0.12702616 -0.64399999
-0.19624698 -0.12702616 -0.64399999
-0.19503042 -0.12702616 -0.64399999
-0.19381388 -0.12702616 -0.64399999
-0.19259733 -0.12702616 -0.64399999
-0.19138077 -0.12702616 -0.64399999
-0.19016422 -0.12702616 -0.64399999
-0.18865427 -0.12682891 -0.64300001
-0.18743962 -0.12682891 -0.64300001
-0.18651457 -0.12702616 -0.64399999
-0.18529801 -0.12702616 -0.64399999
-0.18408147 -0.12702616 -0.64399999
-0.18286492 -0.12702616 -0.64399999
-0.18164836 -0.12702616 -0.64399999
-0.18043181 -0.12702616 -0.64399999
-0.17949355 -0.1272234 -0.64499998
-0.17827509 -0.1272234 -0.64499998
-0.17705666 -0.1272234 -0.64499998
-0.17638347 -0.1276179 -0.64700001
-0.17516124 -0.1276179 -0.64700001
-0.17393902 -0.1276179 -0.64700001
-0.17271681 -0.1276179 -0.64700001
-0.17149459 -0.1276179 -0.64700001
-0.17053553 -0.12781514 -0.648
-0.16931143 -0.12781514 -0.648
-0.16808732 -0.12781514 -0.648
-0.16712072 -0.12801239 -0.64899999
-0.16589472 -0.12801239 -0.64899999
-0.16492245 -0.12820962 -0.64999998
-0.16369456 -0.12820962 -0.64999998
-0.16246668 -0.12820962 -0.64999998
-0.16173492 -0.12860413 -0.65200001
-0.16050325 -0.12860413 -0.65200001
-0.1592716 -0.12860413 -0.65200001
-0.15803993 -0.12860413 -0.65200001
-0.15704876 -0.12880138 -0.653
-0.15581521 -0.12880138 -0.653
-0.15458167 -0.12880138 -0.653
-0.15358295 -0.12899861 -0.65399998
-0.15234751 -0.12899861 -0.65399998
-0.15134311 -0.12919585 -0.65499997
-0.15010577 -0.12919585 -0.65499997
-0.14886846 -0.12919585 -0.65499997
-0.14763112 -0.12919585 -0.65499997
-0.14639379 -0.12919585 -0.65499997
-0.14515646 -0.12919585 -0.65499997
-0.14391913 -0.12919585 -0.65499997
-0.14311747 -0.12959035 -0.65700001
-0.14187637 -0.12959035 -0.65700001
-0.14063525 -0.12959035 -0.65700001
-0.13939415 -0.12959035 -0.65700001
-0.13836332 -0.12978759 -0.65799999
-0.13712032 -0.12978759 -0.65799999
-0.13608381 -0.12998484 -0.65899998
-0.13504355 -0.13018209 -0.66000003
-0.13349161 -0.13235179 -0.671
-0.13222405 -0.13235179 -0.671
-0.13095649 -0.13235179 -0.671
-0.12968893 -0.13235179 -0.671
-0.12842138 -0.13235179 -0.671
-0.12734333 -0.13254903 -0.67199999
-0.2026439 -0.12841648 -0.64499998
-0.20142546 -0.12841648 -0.64499998
-0.20020702 -0.12841648 -0.64499998
-0.19898859 -0.12841648 -0.64499998
-0.19777015 -0.12841648 -0.64499998
-0.19655171 -0.12841648 -0.64499998
-0.19533326 -0.12841648 -0.64499998
-0.19411482 -0.12841648 -0.64499998
-0.19259733 -0.12821738 -0.64399999
-0.19138077 -0.12821738 -0.64399999
-0.19016422 -0.12821738 -0.64399999
-0.18894766 -0.12821738 -0.64399999
-0.18773112 -0.12821738 -0.64399999
-0.18680418 -0.12841648 -0.64499998
-0.18558574 -0.12841648 -0.64499998
-0.1843673 -0.12841648 -0.64499998
-0.18314886 -0.12841648 -0.64499998
-0.18193042 -0.12841648 -0.64499998
-0.18071198 -0.12841648 -0.64499998
-0.18005012 -0.12881468 -0.64700001
-0.1788279 -0.12881468 -0.64700001
-0.17760569 -0.12881468 -0.64700001
-0.17665608 -0.12901378 -0.648
-0.17543197 -0.12901378 -0.648
-0.17420787 -0.12901378 -0.648
-0.17298375 -0.12901378 -0.648
-0.17202471 -0.12921287 -0.64899999
-0.1707987 -0.12921287 -0.64899999
-0.16957271 -0.12921287 -0.64899999
-0.16834672 -0.12921287 -0.64899999
-0.16737822 -0.12941197 -0.64999998
-0.16615033 -0.12941197 -0.64999998
-0.16492245 -0.12941197 -0.64999998
-0.16419825 -0.12981015 -0.65200001
-0.16296658 -0.12981015 -0.65200001
-0.16173492 -0.12981015 -0.65200001
-0.16074942 -0.13000925 -0.653
-0.15951587 -0.13000925 -0.653
-0.15828232 -0.13000925 -0.653
-0.15728927 -0.13020834 -0.65399998
-0.15605383 -0.13020834 -0.65399998
-0.15481839 -0.13020834 -0.65399998
-0.15381777 -0.13040744 -0.65499997
-0.15258044 -0.13040744 -0.65499997
-0.15134311 -0.13040744 -0.65499997
-0.15056413 -0.13080563 -0.65700001
-0.14932302 -0.13080563 -0.65700001
-0.14808191 -0.13080563 -0.65700001
-0.1468408 -0.13080563 -0.65700001
-0.14559969 -0.13080563 -0.65700001
-0.14435858 -0.13080563 -0.65700001
-0.14311747 -0.13080563 -0.65700001
-0.14187637 -0.13080563 -0.65700001
-0.14084931 -0.13100472 -0.65799999
-0.13960631 -0.13100472 -0.65799999
-0.13857359 -0.13120382 -0.65899998
-0.1373287 -0.13120382 -0.65899998
-0.13629033 -0.13140292 -0.66000003
-0.13504355 -0.13140292 -0.66000003
-0.13329266 -0.13339387 -0.67000002
-0.132027 -0.13339387 -0.67000002
-0.13095649 -0.13359296 -0.671
-0.12968893 -0.13359296 -0.671
-0.12842138 -0.13359296 -0.671
-0.12696433 -0.13339387 -0.67000002
-0.20386234 -0.12960957 -0.64499998
-0.2026439 -0.12960957 -0.64499998
-0.20142546 -0.12960957 -0.64499998
-0.20020702 -0.12960957 -0.64499998
-0.19898859 -0.12960957 -0.64499998
-0.19777015 -0.12960957 -0.64499998
-0.19655171 -0.12960957 -0.64499998
-0.19533326 -0.12960957 -0.64499998
-0.19411482 -0.12960957 -0.64499998
-0.19289638 -0.12960957 -0.64499998
-0.19167794 -0.12960957 -0.64499998
-0.1904595 -0.12960957 -0.64499998
-0.18924107 -0.12960957 -0.64499998
-0.18802263 -0.12960957 -0.64499998
-0.18680418 -0.12960957 -0.64499998
-0.18558574 -0.12960957 -0.64499998
-0.184939 -0.13001147 -0.64700001
-0.18371677 -0.13001147 -0.64700001
-0.18249455 -0.13001147 -0.64700001
-0.18127234 -0.13001147 -0.64700001
-0.18005012 -0.13001147 -0.64700001
-0.1788279 -0.13001147 -0.64700001
-0.17788018 -0.13021241 -0.648
-0.17665608 -0.13021241 -0.648
-0.17570269 -0.13041335 -0.64899999
-0.1744767 -0.13041335 -0.64899999
-0.17325071 -0.13041335 -0.64899999
-0.17202471 -0.13041335 -0.64899999
-0.17106187 -0.1306143 -0.64999998
-0.16983399 -0.1306143 -0.64999998
-0.1686061 -0.1306143 -0.64999998
-0.16737822 -0.1306143 -0.64999998
-0.16666158 -0.13101618 -0.65200001
-0.16542991 -0.13101618 -0.65200001
-0.16419825 -0.13101618 -0.65200001
-0.16296658 -0.13101618 -0.65200001
-0.16198298 -0.13121712 -0.653
-0.16074942 -0.13121712 -0.653
-0.15976015 -0.13141808 -0.65399998
-0.15852471 -0.13141808 -0.65399998
-0.15728927 -0.13141808 -0.65399998
-0.15629244 -0.13161902 -0.65499997
-0.15505511 -0.13161902 -0.65499997
-0.15381777 -0.13161902 -0.65499997
-0.15304634 -0.13202091 -0.65700001
-0.15180524 -0.13202091 -0.65700001
-0.15056413 -0.13202091 -0.65700001
-0.14932302 -0.13202091 -0.65700001
-0.14808191 -0.13202091 -0.65700001
-0.1468408 -0.13202091 -0.65700001
-0.14559969 -0.13202091 -0.65700001
-0.14457831 -0.13222185 -0.65799999
-0.1433353 -0.13222185 -0.65799999
-0.1420923 -0.13222185 -0.65799999
-0.14084931 -0.13222185 -0.65799999
-0.13981847 -0.13242279 -0.65899998
-0.13857359 -0.13242279 -0.65899998
-0.13753711 -0.13262375 -0.66000003
-0.13629033 -0.13262375 -0.66000003
-0.13545276 -0.13302563 -0.662
-0.13289477 -0.1342313 -0.66799998
-0.13163288 -0.1342313 -0.66799998
-0.13076133 -0.1346332 -0.67000002
-0.12949567 -0.1346332 -0.67000002
-0.12822999 -0.1346332 -0.67000002
-0.12696433 -0.1346332 -0.67000002
-0.12569866 -0.1346332 -0.67000002
-0.20386234 -0.13080265 -0.64499998
-0.2026439 -0.13080265 -0.64499998
-0.20142546 -0.13080265 -0.64499998
-0.20020702 -0.13080265 -0.64499998
-0.19898859 -0.13080265 -0.64499998
-0.19777015 -0.13080265 -0.64499998
-0.19655171 -0.13080265 -0.64499998
-0.19533326 -0.13080265 -0.64499998
-0.19411482 -0.13080265 -0.64499998
-0.19289638 -0.13080265 -0.64499998
-0.19167794 -0.13080265 -0.64499998
-0.1904595 -0.13080265 -0.64499998
-0.18982786 -0.13120824 -0.64700001
-0.18860565 -0.13120824 -0.64700001
-0.18738343 -0.13120824 -0.64700001
-0.18616121 -0.13120824 -0.64700001
-0.184939 -0.13120824 -0.64700001
-0.18400072 -0.13141103 -0.648
-0.18277662 -0.13141103 -0.648
-0.18155251 -0.13141103 -0.648
-0.1803284 -0.13141103 -0.648
-0.1791043 -0.13141103 -0.648
-0.17815469 -0.13161384 -0.64899999
-0.17692868 -0.13161384 -0.64899999
-0.17570269 -0.13161384 -0.64899999
-0.17474553 -0.13181663 -0.64999998
-0.17351764 -0.13181663 -0.64999998
-0.17228976 -0.13181663 -0.64999998
-0.17106187 -0.13181663 -0.64999998
-0.16983399 -0.13181663 -0.64999998
-0.1691249 -0.13222222 -0.65200001
-0.16789325 -0.13222222 -0.65200001
-0.16691719 -0.13242501 -0.653
-0.16568364 -0.13242501 -0.653
-0.16445008 -0.13242501 -0.653
-0.16346647 -0.1326278 -0.65399998
-0.16223103 -0.1326278 -0.65399998
-0.16099559 -0.1326278 -0.65399998
-0.16000442 -0.13283059 -0.65499997
-0.1587671 -0.13283059 -0.65499997
-0.15752977 -0.13283059 -0.65499997
-0.15629244 -0.13283059 -0.65499997
-0.15505511 -0.13283059 -0.65499997
-0.15428746 -0.13323618 -0.65700001
-0.15304634 -0.13323618 -0.65700001
-0.15180524 -0.13323618 -0.65700001
-0.15056413 -0.13323618 -0.65700001
-0.14955029 -0.13343899 -0.65799999
-0.14830729 -0.13343899 -0.65799999
-0.1470643 -0.13343899 -0.65799999
-0.1458213 -0.13343899 -0.65799999
-0.14457831 -0.13343899 -0.65799999
-0.14355314 -0.13364178 -0.65899998
-0.14230825 -0.13364178 -0.65899998
-0.14106336 -0.13364178 -0.65899998
-0.13981847 -0.13364178 -0.65899998
-0.13878387 -0.13384458 -0.66000003
-0.13753711 -0.13384458 -0.66000003
-0.13670333 -0.13425016 -0.662
-0.13565737 -0.13445295 -0.66299999
-0.13521582 -0.13526414 -0.667
-0.13415666 -0.13546693 -0.66799998
-0.13289477 -0.13546693 -0.66799998
-0.13163288 -0.13546693 -0.66799998
-0.13037099 -0.13546693 -0.66799998
-0.12949567 -0.13587253 -0.67000002
-0.12784721 -0.13546693 -0.66799998
-0.12658532 -0.13546693 -0.66799998
-0.12532343 -0.13546693 -0.66799998
-0.21581374 -0.13567933 -0.66299999
-0.2145613 -0.13567933 -0.66299999
-0.20386234 -0.13199574 -0.64499998
-0.2026439 -0.13199574 -0.64499998
-0.20142546 -0.13199574 -0.64499998
-0.20020702 -0.13199574 -0.64499998
-0.19898859 -0.13199574 -0.64499998
-0.19777015 -0.13199574 -0.64499998
-0.19655171 -0.13199574 -0.64499998
-0.19533326 -0.13199574 -0.64499998
-0.19411482 -0.13199574 -0.64499998
-0.19289638 -0.13199574 -0.64499998
-0.19227231 -0.13240503 -0.64700001
-0.19105008 -0.13240503 -0.64700001
-0.18982786 -0.13240503 -0.64700001
-0.18889715 -0.13260967 -0.648
-0.18767305 -0.13260967 -0.648
-0.18644893 -0.13260967 -0.648
-0.18522483 -0.13260967 -0.648
-0.18428467 -0.1328143 -0.64899999
-0.18305868 -0.1328143 -0.64899999
-0.18183267 -0.1328143 -0.64899999
-0.18060668 -0.1328143 -0.64899999
-0.17938069 -0.1328143 -0.64899999
-0.17815469 -0.1328143 -0.64899999
-0.1772013 -0.13301896 -0.64999998
-0.17597342 -0.13301896 -0.64999998
-0.17474553 -0.13301896 -0.64999998
-0.17351764 -0.13301896 -0.64999998
-0.17228976 -0.13301896 -0.64999998
-0.17106187 -0.13301896 -0.64999998
-0.17035657 -0.13342825 -0.65200001
-0.1691249 -0.13342825 -0.65200001
-0.16815074 -0.13363288 -0.653
-0.16691719 -0.13363288 -0.653
-0.16593736 -0.13383754 -0.65399998
-0.16470192 -0.13383754 -0.65399998
-0.16371642 -0.13404217 -0.65499997
-0.16247909 -0.13404217 -0.65499997
-0.16124175 -0.13404217 -0.65499997
-0.16000442 -0.13404217 -0.65499997
-0.15925188 -0.13445146 -0.65700001
-0.15801078 -0.13445146 -0.65700001
-0.15676968 -0.13445146 -0.65700001
-0.15552856 -0.13445146 -0.65700001
-0.15428746 -0.13445146 -0.65700001
-0.15327929 -0.13465612 -0.65799999
-0.15203629 -0.13465612 -0.65799999
-0.1507933 -0.13465612 -0.65799999
-0.14977758 -0.13486075 -0.65899998
-0.14853269 -0.13486075 -0.65899998
-0.1472878 -0.13486075 -0.65899998
-0.14604291 -0.13486075 -0.65899998
-0.14479803 -0.13486075 -0.65899998
-0.14377098 -0.13506541 -0.66000003
-0.14252421 -0.13506541 -0.66000003
-0.14127743 -0.13506541 -0.66000003
-0.14003065 -0.13506541 -0.66000003
-0.13878387 -0.13506541 -0.66000003
-0.13795388 -0.1354747 -0.662
-0.13690981 -0.13567933 -0.66299999
-0.13586198 -0.13588397 -0.66399997
-0.1350131 -0.13629328 -0.66600001
-0.13395582 -0.13649791 -0.667
-0.13269582 -0.13649791 -0.667
-0.13143583 -0.13649791 -0.667
-0.13037099 -0.13670255 -0.66799998
-0.1291091 -0.13670255 -0.66799998
-0.12784721 -0.13670255 -0.66799998
-0.12639582 -0.13649791 -0.667
-0.12513582 -0.13649791 -0.667
-0.21706618 -0.13690571 -0.66299999
-0.21548824 -0.13669921 -0.662
-0.21423769 -0.13669921 -0.662
-0.20386234 -0.13318881 -0.64499998
-0.2026439 -0.13318881 -0.64499998
-0.20142546 -0.13318881 -0.64499998
-0.20020702 -0.13318881 -0.64499998
-0.19898859 -0.13318881 -0.64499998
-0.19777015 -0.13318881 -0.64499998
-0.19655171 -0.13318881 -0.64499998
-0.19533326 -0.13318881 -0.64499998
-0.19471674 -0.13360181 -0.64700001
-0.19349453 -0.13360181 -0.64700001
-0.19227231 -0.13360181 -0.64700001
-0.19134536 -0.1338083 -0.648
-0.19012126 -0.1338083 -0.648
-0.18918866 -0.13401479 -0.64899999
-0.18796267 -0.13401479 -0.64899999
-0.18673666 -0.13401479 -0.64899999
-0.18551067 -0.13401479 -0.64899999
-0.18456861 -0.13422129 -0.64999998
-0.18334073 -0.13422129 -0.64999998
-0.18211284 -0.13422129 -0.64999998
-0.18088496 -0.13422129 -0.64999998
-0.17965707 -0.13422129 -0.64999998
-0.17842919 -0.13422129 -0.64999998
-0.1772013 -0.13422129 -0.64999998
-0.17597342 -0.13422129 -0.64999998
-0.17474553 -0.13422129 -0.64999998
-0.17405155 -0.13463427 -0.65200001
-0.1728199 -0.13463427 -0.65200001
-0.17158823 -0.13463427 -0.65200001
-0.17035657 -0.13463427 -0.65200001
-0.1693843 -0.13484077 -0.653
-0.16815074 -0.13484077 -0.653
-0.1671728 -0.13504726 -0.65399998
-0.16593736 -0.13504726 -0.65399998
-0.16495375 -0.13525376 -0.65499997
-0.16371642 -0.13525376 -0.65499997
-0.16247909 -0.13525376 -0.65499997
-0.16124175 -0.13525376 -0.65499997
-0.160493 -0.13566674 -0.65700001
-0.15925188 -0.13566674 -0.65700001
-0.15801078 -0.13566674 -0.65700001
-0.15676968 -0.13566674 -0.65700001
-0.15552856 -0.13566674 -0.65700001
-0.15452228 -0.13587324 -0.65799999
-0.15327929 -0.13587324 -0.65799999
-0.15226735 -0.13607973 -0.65899998
-0.15102246 -0.13607973 -0.65899998
-0.14977758 -0.13607973 -0.65899998
-0.14853269 -0.13607973 -0.65899998
-0.1472878 -0.13607973 -0.65899998
-0.14604291 -0.13607973 -0.65899998
-0.14501776 -0.13628623 -0.66000003
-0.14377098 -0.13628623 -0.66000003
-0.14252421 -0.13628623 -0.66000003
-0.14127743 -0.13628623 -0.66000003
-0.14003065 -0.13628623 -0.66000003
-0.13920443 -0.13669921 -0.662
-0.13816226 -0.13690571 -0.66299999
-0.13711631 -0.1371122 -0.66399997
-0.13627121 -0.1375252 -0.66600001
-0.1350131 -0.1375252 -0.66600001
-0.13395582 -0.13773169 -0.667
-0.13269582 -0.13773169 -0.667
-0.13163288 -0.13793819 -0.66799998
-0.13037099 -0.13793819 -0.66799998
-0.1291091 -0.13793819 -0.66799998
-0.12784721 -0.13793819 -0.66799998
-0.12639582 -0.13773169 -0.667
-0.12513582 -0.13773169 -0.667
-0.21673879 -0.13792375 -0.662
-0.21548824 -0.13792375 -0.662
-0.21423769 -0.13792375 -0.662
-0.21298712 -0.13792375 -0.662
-0.20386234 -0.13438189 -0.64499998
-0.2026439 -0.13438189 -0.64499998
-0.20142546 -0.13438189 -0.64499998
-0.20082784 -0.13479859 -0.64700001
-0.19960561 -0.13479859 -0.64700001
-0.19777015 -0.13438189 -0.64499998
-0.19655171 -0.13438189 -0.64499998
-0.19593896 -0.13479859 -0.64700001
-0.19471674 -0.13479859 -0.64700001
-0.19379358 -0.13500693 -0.648
-0.19286665 -0.13521527 -0.64899999
-0.19164065 -0.13521527 -0.64899999
-0.19041465 -0.13521527 -0.64899999
-0.18918866 -0.13521527 -0.64899999
-0.18825227 -0.13542362 -0.64999998
-0.18702438 -0.13542362 -0.64999998
-0.1857965 -0.13542362 -0.64999998
-0.18456861 -0.13542362 -0.64999998
-0.18334073 -0.13542362 -0.64999998
-0.18211284 -0.13542362 -0.64999998
-0.18088496 -0.13542362 -0.64999998
-0.18020988 -0.13584031 -0.65200001
-0.17897822 -0.13584031 -0.65200001
-0.17774655 -0.13584031 -0.65200001
-0.17651488 -0.13584031 -0.65200001
-0.17528322 -0.13584031 -0.65200001
-0.17405155 -0.13584031 -0.65200001
-0.17308494 -0.13604864 -0.653
-0.1718514 -0.13604864 -0.653
-0.17061785 -0.13604864 -0.653
-0.1693843 -0.13604864 -0.653
-0.16840824 -0.13625699 -0.65399998
-0.16742842 -0.13646533 -0.65499997
-0.16619109 -0.13646533 -0.65499997
-0.16495375 -0.13646533 -0.65499997
-0.16421632 -0.13688202 -0.65700001
-0.16297522 -0.13688202 -0.65700001
-0.1617341 -0.13688202 -0.65700001
-0.160493 -0.13688202 -0.65700001
-0.15949428 -0.13709037 -0.65799999
-0.15825129 -0.13709037 -0.65799999
-0.15700829 -0.13709037 -0.65799999
-0.15576528 -0.13709037 -0.65799999
-0.15452228 -0.13709037 -0.65799999
-0.15351224 -0.13729872 -0.65899998
-0.15226735 -0.13729872 -0.65899998
-0.15102246 -0.13729872 -0.65899998
-0.14977758 -0.13729872 -0.65899998
-0.14875808 -0.13750707 -0.66000003
-0.1475113 -0.13750707 -0.66000003
-0.14626454 -0.13750707 -0.66000003
-0.14501776 -0.13750707 -0.66000003
-0.14377098 -0.13750707 -0.66000003
-0.14252421 -0.13750707 -0.66000003
-0.14170554 -0.13792375 -0.662
-0.14045498 -0.13792375 -0.662
-0.1394147 -0.1381321 -0.66299999
-0.13837065 -0.13834043 -0.66399997
-0.13752933 -0.13875712 -0.66600001
-0.13627121 -0.13875712 -0.66600001
-0.13521582 -0.13896547 -0.667
-0.13395582 -0.13896547 -0.667
-0.13289477 -0.13917381 -0.66799998
-0.13163288 -0.13917381 -0.66799998
-0.13037099 -0.13917381 -0.66799998
-0.1291091 -0.13917381 -0.66799998
-0.12784721 -0.13917381 -0.66799998
-0.12639582 -0.13896547 -0.667
-0.12513582 -0.13896547 -0.667
-0.21831864 -0.13935846 -0.66299999
-0.21673879 -0.13914828 -0.662
-0.21548824 -0.13914828 -0.662
-0.21423769 -0.13914828 -0.662
-0.21298712 -0.13914828 -0.662
-0.20449449 -0.13599537 -0.64700001
-0.2026439 -0.13557498 -0.64499998
-0.20205005 -0.13599537 -0.64700001
-0.20082784 -0.13599537 -0.64700001
-0.19960561 -0.13599537 -0.64700001
-0.19838339 -0.13599537 -0.64700001
-0.19716118 -0.13599537 -0.64700001
-0.19593896 -0.13599537 -0.64700001
-0.1950177 -0.13620557 -0.648
-0.19409265 -0.13641575 -0.64899999
-0.19286665 -0.13641575 -0.64899999
-0.19193593 -0.13662595 -0.64999998
-0.19070804 -0.13662595 -0.64999998
-0.18948016 -0.13662595 -0.64999998
-0.18825227 -0.13662595 -0.64999998
-0.18759985 -0.13704634 -0.65200001
-0.1863682 -0.13704634 -0.65200001
-0.18513653 -0.13704634 -0.65200001
-0.18390487 -0.13704634 -0.65200001
-0.1826732 -0.13704634 -0.65200001
-0.18144155 -0.13704634 -0.65200001
-0.18020988 -0.13704634 -0.65200001
-0.17897822 -0.13704634 -0.65200001
-0.17774655 -0.13704634 -0.65200001
-0.17651488 -0.13704634 -0.65200001
-0.17555206 -0.13725653 -0.653
-0.17431851 -0.13725653 -0.653
-0.17308494 -0.13725653 -0.653
-0.17211457 -0.13746673 -0.65399998
-0.17087913 -0.13746673 -0.65399998
-0.16964369 -0.13746673 -0.65399998
-0.16866574 -0.13767691 -0.65499997
-0.16742842 -0.13767691 -0.65499997
-0.16619109 -0.13767691 -0.65499997
-0.16545744 -0.1380973 -0.65700001
-0.16421632 -0.1380973 -0.65700001
-0.16297522 -0.1380973 -0.65700001
-0.1617341 -0.1380973 -0.65700001
-0.16073728 -0.1383075 -0.65799999
-0.15949428 -0.1383075 -0.65799999
-0.15849178 -0.13851769 -0.65899998
-0.15724689 -0.13851769 -0.65899998
-0.15600201 -0.13851769 -0.65899998
-0.15475713 -0.13851769 -0.65899998
-0.15351224 -0.13851769 -0.65899998
-0.15226735 -0.13851769 -0.65899998
-0.15125164 -0.13872789 -0.66000003
-0.15000486 -0.13872789 -0.66000003
-0.14875808 -0.13872789 -0.66000003
-0.1475113 -0.13872789 -0.66000003
-0.14670776 -0.13914828 -0.662
-0.14545719 -0.13914828 -0.662
-0.14442448 -0.13935846 -0.66299999
-0.14317204 -0.13935846 -0.66299999
-0.1419196 -0.13935846 -0.66299999
-0.14066716 -0.13935846 -0.66299999
-0.13962498 -0.13956866 -0.66399997
-0.13878743 -0.13998905 -0.66600001
-0.13752933 -0.13998905 -0.66600001
-0.13647582 -0.14019924 -0.667
-0.13521582 -0.14019924 -0.667
-0.13415666 -0.14040944 -0.66799998
-0.13289477 -0.14040944 -0.66799998
-0.13163288 -0.14040944 -0.66799998
-0.13076133 -0.14082983 -0.67000002
-0.12949567 -0.14082983 -0.67000002
-0.12822999 -0.14082983 -0.67000002
-0.12658532 -0.14040944 -0.66799998
-0.12532343 -0.14040944 -0.66799998
-0.21831864 -0.14058484 -0.66299999
-0.21673879 -0.1403728 -0.662
-0.21548824 -0.1403728 -0.662
-0.21423769 -0.1403728 -0.662
-0.21298712 -0.1403728 -0.662
-0.20512661 -0.13761623 -0.64899999
-0.20327227 -0.13719216 -0.64700001
-0.20205005 -0.13719216 -0.64700001
-0.20082784 -0.13719216 -0.64700001
-0.19960561 -0.13719216 -0.64700001
-0.19838339 -0.13719216 -0.64700001
-0.19716118 -0.13719216 -0.64700001
-0.1962418 -0.13740419 -0.648
-0.19531864 -0.13761623 -0.64899999
-0.1943917 -0.13782828 -0.64999998
-0.19316381 -0.13782828 -0.64999998
-0.19193593 -0.13782828 -0.64999998
-0.19070804 -0.13782828 -0.64999998
-0.19006319 -0.13825238 -0.65200001
-0.18883152 -0.13825238 -0.65200001
-0.18759985 -0.13825238 -0.65200001
-0.1863682 -0.13825238 -0.65200001
-0.18513653 -0.13825238 -0.65200001
-0.18418692 -0.13846441 -0.653
-0.18295337 -0.13846441 -0.653
-0.18171982 -0.13846441 -0.653
-0.18048626 -0.13846441 -0.653
-0.17925271 -0.13846441 -0.653
-0.17801917 -0.13846441 -0.653
-0.17705633 -0.13867645 -0.65399998
-0.17582089 -0.13867645 -0.65399998
-0.17458545 -0.13867645 -0.65399998
-0.17335001 -0.13867645 -0.65399998
-0.17237774 -0.13888849 -0.65499997
-0.1711404 -0.13888849 -0.65499997
-0.16990307 -0.13888849 -0.65499997
-0.16866574 -0.13888849 -0.65499997
-0.16793965 -0.13931258 -0.65700001
-0.16669855 -0.13931258 -0.65700001
-0.16570927 -0.13952462 -0.65799999
-0.16446628 -0.13952462 -0.65799999
-0.16322327 -0.13952462 -0.65799999
-0.16198027 -0.13952462 -0.65799999
-0.16098155 -0.13973667 -0.65899998
-0.15973666 -0.13973667 -0.65899998
-0.15849178 -0.13973667 -0.65899998
-0.15724689 -0.13973667 -0.65899998
-0.15600201 -0.13973667 -0.65899998
-0.15475713 -0.13973667 -0.65899998
-0.15374519 -0.13994873 -0.66000003
-0.15249841 -0.13994873 -0.66000003
-0.15125164 -0.13994873 -0.66000003
-0.15045942 -0.1403728 -0.662
-0.14920886 -0.1403728 -0.662
-0.14795831 -0.1403728 -0.662
-0.14692937 -0.14058484 -0.66299999
-0.14589664 -0.14079688 -0.66399997
-0.14464231 -0.14079688 -0.66399997
-0.14338797 -0.14079688 -0.66399997
-0.14213364 -0.14079688 -0.66399997
-0.14087932 -0.14079688 -0.66399997
-0.14004554 -0.14122097 -0.66600001
-0.13878743 -0.14122097 -0.66600001
-0.13773583 -0.14143302 -0.667
-0.13647582 -0.14143302 -0.667
-0.13541855 -0.14164506 -0.66799998
-0.13415666 -0.14164506 -0.66799998
-0.13289477 -0.14164506 -0.66799998
-0.132027 -0.14206916 -0.67000002
-0.13076133 -0.14206916 -0.67000002
-0.12949567 -0.14206916 -0.67000002
-0.12822999 -0.14206916 -0.67000002
-0.12696433 -0.14206916 -0.67000002
-0.12569866 -0.14206916 -0.67000002
-0.124433 -0.14206916 -0.67000002
-0.21798936 -0.14159733 -0.662
-0.21673879 -0.14159733 -0.662
-0.21548824 -0.14159733 -0.662
-0.21423769 -0.14159733 -0.662
-0.21298712 -0.14159733 -0.662
-0.21077704 -0.14095564 -0.65899998
-0.20730647 -0.1394584 -0.65200001
-0.20544267 -0.13903061 -0.64999998
-0.20390062 -0.13881671 -0.64899999
-0.20267461 -0.13881671 -0.64899999
-0.20144862 -0.13881671 -0.64899999
-0.19991411 -0.13860282 -0.648
-0.19869001 -0.13860282 -0.648
-0.19746591 -0.13860282 -0.648
-0.19654463 -0.13881671 -0.64899999
-0.19561958 -0.13903061 -0.64999998
-0.1943917 -0.13903061 -0.64999998
-0.19375817 -0.1394584 -0.65200001
-0.19252652 -0.1394584 -0.65200001
-0.19129485 -0.1394584 -0.65200001
-0.19006319 -0.1394584 -0.65200001
-0.18883152 -0.1394584 -0.65200001
-0.18788758 -0.13967229 -0.653
-0.18665403 -0.13967229 -0.653
-0.18542048 -0.13967229 -0.653
-0.18418692 -0.13967229 -0.653
-0.18295337 -0.13967229 -0.653
-0.1819981 -0.13988619 -0.65399998
-0.18076266 -0.13988619 -0.65399998
-0.17952722 -0.13988619 -0.65399998
-0.17829178 -0.13988619 -0.65399998
-0.17732707 -0.14010008 -0.65499997
-0.17608973 -0.14010008 -0.65499997
-0.1748524 -0.14010008 -0.65499997
-0.17361507 -0.14010008 -0.65499997
-0.17237774 -0.14010008 -0.65499997
-0.17166299 -0.14052786 -0.65700001
-0.17042187 -0.14052786 -0.65700001
-0.16918077 -0.14052786 -0.65700001
-0.16819526 -0.14074175 -0.65799999
-0.16695227 -0.14074175 -0.65799999
-0.1659611 -0.14095564 -0.65899998
-0.16471621 -0.14095564 -0.65899998
-0.16347133 -0.14095564 -0.65899998
-0.16222644 -0.14095564 -0.65899998
-0.16098155 -0.14095564 -0.65899998
-0.15973666 -0.14095564 -0.65899998
-0.15849178 -0.14095564 -0.65899998
-0.15748551 -0.14116955 -0.66000003
-0.15623875 -0.14116955 -0.66000003
-0.15499197 -0.14116955 -0.66000003
-0.15374519 -0.14116955 -0.66000003
-0.15249841 -0.14116955 -0.66000003
-0.15170997 -0.14159733 -0.662
-0.1506867 -0.14181122 -0.66299999
-0.14943425 -0.14181122 -0.66299999
-0.14840531 -0.14202511 -0.66399997
-0.14715098 -0.14202511 -0.66399997
-0.14633609 -0.14245291 -0.66600001
-0.14507799 -0.14245291 -0.66600001
-0.14381988 -0.14245291 -0.66600001
-0.14256176 -0.14245291 -0.66600001
-0.14130366 -0.14245291 -0.66600001
-0.14025582 -0.1426668 -0.667
-0.13899583 -0.1426668 -0.667
-0.13794231 -0.14288069 -0.66799998
-0.13668042 -0.14288069 -0.66799998
-0.13582399 -0.14330848 -0.67000002
-0.13455832 -0.14330848 -0.67000002
-0.13329266 -0.14330848 -0.67000002
-0.132027 -0.14330848 -0.67000002
-0.13095649 -0.14352237 -0.671
-0.12968893 -0.14352237 -0.671
-0.12842138 -0.14352237 -0.671
-0.12715383 -0.14352237 -0.671
-0.12569866 -0.14330848 -0.67000002
-0.124433 -0.14330848 -0.67000002
-0.21673879 -0.14282186 -0.662
-0.21548824 -0.14282186 -0.662
-0.21359046 -0.14239039 -0.66000003
-0.21202193 -0.14217463 -0.65899998
-0.20917782 -0.14109591 -0.65399998
-0.20730647 -0.14066443 -0.65200001
-0.20607482 -0.14066443 -0.65200001
-0.20421478 -0.14023294 -0.64999998
-0.2029869 -0.14023294 -0.64999998
-0.20175901 -0.14023294 -0.64999998
-0.20053113 -0.14023294 -0.64999998
-0.19899663 -0.1400172 -0.64899999
-0.19777063 -0.1400172 -0.64899999
-0.19684747 -0.14023294 -0.64999998
-0.1962215 -0.14066443 -0.65200001
-0.19498985 -0.14066443 -0.65200001
-0.19375817 -0.14066443 -0.65200001
-0.1928218 -0.14088017 -0.653
-0.19158824 -0.14088017 -0.653
-0.19035469 -0.14088017 -0.653
-0.18941075 -0.14109591 -0.65399998
-0.18817531 -0.14109591 -0.65399998
-0.18693987 -0.14109591 -0.65399998
-0.18570442 -0.14109591 -0.65399998
-0.18446898 -0.14109591 -0.65399998
-0.18323354 -0.14109591 -0.65399998
-0.1819981 -0.14109591 -0.65399998
-0.18076266 -0.14109591 -0.65399998
-0.17980172 -0.14131165 -0.65499997
-0.17856438 -0.14131165 -0.65499997
-0.17732707 -0.14131165 -0.65499997
-0.17662741 -0.14174314 -0.65700001
-0.17538631 -0.14174314 -0.65700001
-0.17414519 -0.14174314 -0.65700001
-0.17290409 -0.14174314 -0.65700001
-0.17166299 -0.14174314 -0.65700001
-0.17068127 -0.14195889 -0.65799999
-0.16943826 -0.14195889 -0.65799999
-0.16845088 -0.14217463 -0.65899998
-0.16720599 -0.14217463 -0.65899998
-0.1659611 -0.14217463 -0.65899998
-0.16471621 -0.14217463 -0.65899998
-0.16347133 -0.14217463 -0.65899998
-0.16247262 -0.14239039 -0.66000003
-0.16122586 -0.14239039 -0.66000003
-0.15997908 -0.14239039 -0.66000003
-0.1587323 -0.14239039 -0.66000003
-0.15748551 -0.14239039 -0.66000003
-0.15623875 -0.14239039 -0.66000003
-0.15499197 -0.14239039 -0.66000003
-0.15421107 -0.14282186 -0.662
-0.15319158 -0.1430376 -0.66299999
-0.15193914 -0.1430376 -0.66299999
-0.15091397 -0.14325334 -0.66399997
-0.14965963 -0.14325334 -0.66399997
-0.14885232 -0.14368483 -0.66600001
-0.14759421 -0.14368483 -0.66600001
-0.14633609 -0.14368483 -0.66600001
-0.14529581 -0.14390057 -0.667
-0.14403582 -0.14390057 -0.667
-0.14277582 -0.14390057 -0.667
-0.14151582 -0.14390057 -0.667
-0.14025582 -0.14390057 -0.667
-0.1392042 -0.14411631 -0.66799998
-0.13835533 -0.14454781 -0.67000002
-0.13708965 -0.14454781 -0.67000002
-0.13602671 -0.14476354 -0.671
-0.13475916 -0.14476354 -0.671
-0.13349161 -0.14476354 -0.671
-0.13222405 -0.14476354 -0.671
-0.13095649 -0.14476354 -0.671
-0.12968893 -0.14476354 -0.671
-0.12842138 -0.14476354 -0.671
-0.12715383 -0.14476354 -0.671
-0.12588626 -0.14476354 -0.671
-0.12461871 -0.14476354 -0.671
-0.21359046 -0.14361121 -0.66000003
-0.21041326 -0.14230564 -0.65399998
-0.20885798 -0.14208806 -0.653
-0.20730647 -0.14187047 -0.65200001
-0.20607482 -0.14187047 -0.65200001
-0.20484315 -0.14187047 -0.65200001
-0.20361149 -0.14187047 -0.65200001
-0.20175901 -0.14143527 -0.64999998
-0.20053113 -0.14143527 -0.64999998
-0.19930324 -0.14143527 -0.64999998
-0.19807535 -0.14143527 -0.64999998
-0.19745317 -0.14187047 -0.65200001
-0.19652246 -0.14208806 -0.653
-0.1952889 -0.14208806 -0.653
-0.19435252 -0.14230564 -0.65399998
-0.19311708 -0.14230564 -0.65399998
-0.19188164 -0.14230564 -0.65399998
-0.1906462 -0.14230564 -0.65399998
-0.18941075 -0.14230564 -0.65399998
-0.18846303 -0.14252323 -0.65499997
-0.1872257 -0.14252323 -0.65499997
-0.18598838 -0.14252323 -0.65499997
-0.18475105 -0.14252323 -0.65499997
-0.18351372 -0.14252323 -0.65499997
-0.18227638 -0.14252323 -0.65499997
-0.18103905 -0.14252323 -0.65499997
-0.17980172 -0.14252323 -0.65499997
-0.17910963 -0.14295842 -0.65700001
-0.17786853 -0.14295842 -0.65700001
-0.17689626 -0.14317602 -0.65799999
-0.17565325 -0.14317602 -0.65799999
-0.17467532 -0.14339361 -0.65899998
-0.17343043 -0.14339361 -0.65899998
-0.17218554 -0.14339361 -0.65899998
-0.17120005 -0.14361121 -0.66000003
-0.16995329 -0.14361121 -0.66000003
-0.16870651 -0.14361121 -0.66000003
-0.16745973 -0.14361121 -0.66000003
-0.16621296 -0.14361121 -0.66000003
-0.16496618 -0.14361121 -0.66000003
-0.1637194 -0.14361121 -0.66000003
-0.16247262 -0.14361121 -0.66000003
-0.16122586 -0.14361121 -0.66000003
-0.15997908 -0.14361121 -0.66000003
-0.1592133 -0.14404638 -0.662
-0.15796274 -0.14404638 -0.662
-0.15671219 -0.14404638 -0.662
-0.15546164 -0.14404638 -0.662
-0.15444402 -0.14426398 -0.66299999
-0.15319158 -0.14426398 -0.66299999
-0.1521683 -0.14448157 -0.66399997
-0.15136854 -0.14491676 -0.66600001
-0.15011042 -0.14491676 -0.66600001
-0.14885232 -0.14491676 -0.66600001
-0.14759421 -0.14491676 -0.66600001
-0.14655581 -0.14513434 -0.667
-0.14529581 -0.14513434 -0.667
-0.14403582 -0.14513434 -0.667
-0.14277582 -0.14513434 -0.667
-0.14172798 -0.14535195 -0.66799998
-0.14088666 -0.14578713 -0.67000002
-0.13982938 -0.14600472 -0.671
-0.13856183 -0.14600472 -0.671
-0.13729426 -0.14600472 -0.671
-0.13622944 -0.14622231 -0.67199999
-0.13496 -0.14622231 -0.67199999
-0.13369055 -0.14622231 -0.67199999
-0.13242111 -0.14622231 -0.67199999
-0.13115166 -0.14622231 -0.67199999
-0.12988222 -0.14622231 -0.67199999
-0.12861277 -0.14622231 -0.67199999
-0.12734333 -0.14622231 -0.67199999
-0.12607388 -0.14622231 -0.67199999
-0.12480443 -0.14622231 -0.67199999
-0.21197233 -0.14373481 -0.65499997
-0.21041326 -0.14351538 -0.65399998
-0.20885798 -0.14329593 -0.653
-0.20762444 -0.14329593 -0.653
-0.20607482 -0.14307649 -0.65200001
-0.20484315 -0.14307649 -0.65200001
-0.20361149 -0.14307649 -0.65200001
-0.20237982 -0.14307649 -0.65200001
-0.20114817 -0.14307649 -0.65200001
-0.1999165 -0.14307649 -0.65200001
-0.19868483 -0.14307649 -0.65200001
-0.19775601 -0.14329593 -0.653
-0.1968234 -0.14351538 -0.65399998
-0.19558796 -0.14351538 -0.65399998
-0.1946497 -0.14373481 -0.65499997
-0.19341236 -0.14373481 -0.65499997
-0.19217503 -0.14373481 -0.65499997
-0.1909377 -0.14373481 -0.65499997
-0.18970037 -0.14373481 -0.65499997
-0.18846303 -0.14373481 -0.65499997
-0.1872257 -0.14373481 -0.65499997
-0.18598838 -0.14373481 -0.65499997
-0.18475105 -0.14373481 -0.65499997
-0.18351372 -0.14373481 -0.65499997
-0.18227638 -0.14373481 -0.65499997
-0.18103905 -0.14373481 -0.65499997
-0.18035075 -0.14417371 -0.65700001
-0.17938225 -0.14439315 -0.65799999
-0.17840998 -0.14461258 -0.65899998
-0.17716509 -0.14461258 -0.65899998
-0.17618716 -0.14483203 -0.66000003
-0.17494039 -0.14483203 -0.66000003
-0.17369361 -0.14483203 -0.66000003
-0.17244683 -0.14483203 -0.66000003
-0.17120005 -0.14483203 -0.66000003
-0.16995329 -0.14483203 -0.66000003
-0.16870651 -0.14483203 -0.66000003
-0.16745973 -0.14483203 -0.66000003
-0.16621296 -0.14483203 -0.66000003
-0.16546607 -0.14527091 -0.662
-0.16421552 -0.14527091 -0.662
-0.16296495 -0.14527091 -0.662
-0.1617144 -0.14527091 -0.662
-0.16046385 -0.14527091 -0.662
-0.1592133 -0.14527091 -0.662
-0.15820135 -0.14549035 -0.66299999
-0.15694891 -0.14549035 -0.66299999
-0.15569647 -0.14549035 -0.66299999
-0.15467697 -0.1457098 -0.66399997
-0.15388475 -0.14614868 -0.66600001
-0.15262665 -0.14614868 -0.66600001
-0.15136854 -0.14614868 -0.66600001
-0.15033582 -0.14636813 -0.667
-0.14907582 -0.14636813 -0.667
-0.14781582 -0.14636813 -0.667
-0.14677554 -0.14658757 -0.66799998
-0.14551365 -0.14658757 -0.66799998
-0.14468366 -0.14702646 -0.67000002
-0.143418 -0.14702646 -0.67000002
-0.14215232 -0.14702646 -0.67000002
-0.14109693 -0.1472459 -0.671
-0.13982938 -0.1472459 -0.671
-0.13856183 -0.1472459 -0.671
-0.13749889 -0.14746533 -0.67199999
-0.13622944 -0.14746533 -0.67199999
-0.13496 -0.14746533 -0.67199999
-0.13369055 -0.14746533 -0.67199999
-0.13242111 -0.14746533 -0.67199999
-0.13115166 -0.14746533 -0.67199999
-0.12988222 -0.14746533 -0.67199999
-0.12861277 -0.14746533 -0.67199999
-0.12734333 -0.14746533 -0.67199999
-0.12626149 -0.14768478 -0.67299998
-0.21444699 -0.1449464 -0.65499997
-0.21320966 -0.1449464 -0.65499997
-0.2116487 -0.1447251 -0.65399998
-0.21041326 -0.1447251 -0.65399998
-0.20917782 -0.1447251 -0.65399998
-0.20762444 -0.14450382 -0.653
-0.20639087 -0.14450382 -0.653
-0.20515732 -0.14450382 -0.653
-0.20392378 -0.14450382 -0.653
-0.20269021 -0.14450382 -0.653
-0.20145667 -0.14450382 -0.653
-0.20022312 -0.14450382 -0.653
-0.19898956 -0.14450382 -0.653
-0.19805884 -0.1447251 -0.65399998
-0.19712435 -0.1449464 -0.65499997
-0.19588703 -0.1449464 -0.65499997
-0.1946497 -0.1449464 -0.65499997
-0.19341236 -0.1449464 -0.65499997
-0.19217503 -0.1449464 -0.65499997
-0.1909377 -0.1449464 -0.65499997
-0.18970037 -0.1449464 -0.65499997
-0.1890385 -0.14538899 -0.65700001
-0.1877974 -0.14538899 -0.65700001
-0.18655629 -0.14538899 -0.65700001
-0.18531518 -0.14538899 -0.65700001
-0.18407407 -0.14538899 -0.65700001
-0.18283296 -0.14538899 -0.65700001
-0.18159185 -0.14538899 -0.65700001
-0.18089975 -0.14583156 -0.65899998
-0.1799275 -0.14605287 -0.66000003
-0.17868072 -0.14605287 -0.66000003
-0.17743394 -0.14605287 -0.66000003
-0.17672105 -0.14649545 -0.662
-0.1754705 -0.14649545 -0.662
-0.17421995 -0.14649545 -0.662
-0.1729694 -0.14649545 -0.662
-0.17171884 -0.14649545 -0.662
-0.17046829 -0.14649545 -0.662
-0.16921774 -0.14649545 -0.662
-0.16796717 -0.14649545 -0.662
-0.16671662 -0.14649545 -0.662
-0.16546607 -0.14649545 -0.662
-0.16421552 -0.14649545 -0.662
-0.16296495 -0.14649545 -0.662
-0.16195868 -0.14671673 -0.66299999
-0.16070624 -0.14671673 -0.66299999
-0.15945379 -0.14671673 -0.66299999
-0.15843996 -0.14693803 -0.66399997
-0.15718563 -0.14693803 -0.66399997
-0.15593129 -0.14693803 -0.66399997
-0.15514287 -0.14738062 -0.66600001
-0.15411581 -0.1476019 -0.667
-0.15285581 -0.1476019 -0.667
-0.15159582 -0.1476019 -0.667
-0.1505612 -0.1478232 -0.66799998
-0.14929932 -0.1478232 -0.66799998
-0.14803743 -0.1478232 -0.66799998
-0.14721499 -0.14826578 -0.67000002
-0.14594933 -0.14826578 -0.67000002
-0.14489961 -0.14848708 -0.671
-0.14363205 -0.14848708 -0.671
-0.14236449 -0.14848708 -0.671
-0.14109693 -0.14848708 -0.671
-0.13982938 -0.14848708 -0.671
-0.13876833 -0.14870836 -0.67199999
-0.13749889 -0.14870836 -0.67199999
-0.13622944 -0.14870836 -0.67199999
-0.13496 -0.14870836 -0.67199999
-0.13369055 -0.14870836 -0.67199999
-0.13261816 -0.14892966 -0.67299998
-0.13134682 -0.14892966 -0.67299998
-0.13007548 -0.14892966 -0.67299998
-0.12880415 -0.14892966 -0.67299998
-0.12753281 -0.14892966 -0.67299998
-0.12663671 -0.14937225 -0.67500001
-0.21411958 -0.14593484 -0.65399998
-0.21288414 -0.14593484 -0.65399998
-0.2116487 -0.14593484 -0.65399998
-0.21041326 -0.14593484 -0.65399998
-0.20917782 -0.14593484 -0.65399998
-0.20794238 -0.14593484 -0.65399998
-0.20670694 -0.14593484 -0.65399998
-0.2054715 -0.14593484 -0.65399998
-0.20423606 -0.14593484 -0.65399998
-0.20300062 -0.14593484 -0.65399998
-0.20176516 -0.14593484 -0.65399998
-0.20052972 -0.14593484 -0.65399998
-0.19929428 -0.14593484 -0.65399998
-0.19836168 -0.14615797 -0.65499997
-0.19712435 -0.14615797 -0.65499997
-0.19648516 -0.14660427 -0.65700001
-0.19524406 -0.14660427 -0.65700001
-0.19400294 -0.14660427 -0.65700001
-0.19276184 -0.14660427 -0.65700001
-0.19152072 -0.14660427 -0.65700001
-0.19027962 -0.14660427 -0.65700001
-0.1890385 -0.14660427 -0.65700001
-0.18808323 -0.1468274 -0.65799999
-0.18684024 -0.1468274 -0.65799999
-0.18559724 -0.1468274 -0.65799999
-0.18435425 -0.1468274 -0.65799999
-0.18311124 -0.1468274 -0.65799999
-0.18214464 -0.14705054 -0.65899998
-0.18117426 -0.14727369 -0.66000003
-0.18047272 -0.14771996 -0.662
-0.17922217 -0.14771996 -0.662
-0.17797162 -0.14771996 -0.662
-0.17698801 -0.14794311 -0.66299999
-0.17573556 -0.14794311 -0.66299999
-0.17448312 -0.14794311 -0.66299999
-0.17323068 -0.14794311 -0.66299999
-0.17197824 -0.14794311 -0.66299999
-0.17072579 -0.14794311 -0.66299999
-0.16947335 -0.14794311 -0.66299999
-0.16822091 -0.14794311 -0.66299999
-0.16696846 -0.14794311 -0.66299999
-0.16571601 -0.14794311 -0.66299999
-0.16446356 -0.14794311 -0.66299999
-0.16345729 -0.14816625 -0.66399997
-0.16220297 -0.14816625 -0.66399997
-0.16094863 -0.14816625 -0.66399997
-0.1596943 -0.14816625 -0.66399997
-0.1589172 -0.14861254 -0.66600001
-0.1576591 -0.14861254 -0.66600001
-0.15640098 -0.14861254 -0.66600001
-0.15537581 -0.14883567 -0.667
-0.15411581 -0.14883567 -0.667
-0.15308498 -0.14905882 -0.66799998
-0.15227766 -0.14950511 -0.67000002
-0.15101199 -0.14950511 -0.67000002
-0.14974633 -0.14950511 -0.67000002
-0.14848067 -0.14950511 -0.67000002
-0.14721499 -0.14950511 -0.67000002
-0.14616716 -0.14972825 -0.671
-0.14489961 -0.14972825 -0.671
-0.14363205 -0.14972825 -0.671
-0.14257666 -0.14995138 -0.67199999
-0.14130722 -0.14995138 -0.67199999
-0.14003778 -0.14995138 -0.67199999
-0.13876833 -0.14995138 -0.67199999
-0.13749889 -0.14995138 -0.67199999
-0.13643216 -0.15017453 -0.67299998
-0.13516082 -0.15017453 -0.67299998
-0.13388948 -0.15017453 -0.67299998
-0.13261816 -0.15017453 -0.67299998
-0.13173716 -0.15062082 -0.67500001
-0.13046205 -0.15062082 -0.67500001
-0.12918693 -0.15062082 -0.67500001
-0.12791182 -0.15062082 -0.67500001
-0.12682432 -0.15084396 -0.676
-0.21411958 -0.14714456 -0.65399998
-0.21288414 -0.14714456 -0.65399998
-0.2116487 -0.14714456 -0.65399998
-0.21073499 -0.14736955 -0.65499997
-0.20917782 -0.14714456 -0.65399998
-0.20794238 -0.14714456 -0.65399998
-0.20670694 -0.14714456 -0.65399998
-0.2054715 -0.14714456 -0.65399998
-0.20454834 -0.14736955 -0.65499997
-0.20331101 -0.14736955 -0.65499997
-0.20207368 -0.14736955 -0.65499997
-0.20083635 -0.14736955 -0.65499997
-0.19959901 -0.14736955 -0.65499997
-0.19896738 -0.14781955 -0.65700001
-0.19772626 -0.14781955 -0.65700001
-0.19648516 -0.14781955 -0.65700001
-0.19524406 -0.14781955 -0.65700001
-0.19400294 -0.14781955 -0.65700001
-0.19276184 -0.14781955 -0.65700001
-0.19152072 -0.14781955 -0.65700001
-0.19056924 -0.14804453 -0.65799999
-0.18932623 -0.14804453 -0.65799999
-0.18808323 -0.14804453 -0.65799999
-0.18712418 -0.14826952 -0.65899998
-0.18587931 -0.14826952 -0.65899998
-0.1849146 -0.14849453 -0.66000003
-0.18366782 -0.14849453 -0.66000003
-0.18297383 -0.1489445 -0.662
-0.18199778 -0.14916949 -0.66299999
-0.18074533 -0.14916949 -0.66299999
-0.17949289 -0.14916949 -0.66299999
-0.17850928 -0.14939448 -0.66399997
-0.17725495 -0.14939448 -0.66399997
-0.17600062 -0.14939448 -0.66399997
-0.17474629 -0.14939448 -0.66399997
-0.17349195 -0.14939448 -0.66399997
-0.17223762 -0.14939448 -0.66399997
-0.17098328 -0.14939448 -0.66399997
-0.16972895 -0.14939448 -0.66399997
-0.16847463 -0.14939448 -0.66399997
-0.16722029 -0.14939448 -0.66399997
-0.16596596 -0.14939448 -0.66399997
-0.16471162 -0.14939448 -0.66399997
-0.16394964 -0.14984447 -0.66600001
-0.16269153 -0.14984447 -0.66600001
-0.16143343 -0.14984447 -0.66600001
-0.16017531 -0.14984447 -0.66600001
-0.1589172 -0.14984447 -0.66600001
-0.15789582 -0.15006946 -0.667
-0.15663582 -0.15006946 -0.667
-0.15560876 -0.15029445 -0.66799998
-0.154809 -0.15074444 -0.67000002
-0.15354332 -0.15074444 -0.67000002
-0.15250494 -0.15096943 -0.671
-0.15123738 -0.15096943 -0.671
-0.14996983 -0.15096943 -0.671
-0.14870228 -0.15096943 -0.671
-0.14743471 -0.15096943 -0.671
-0.14616716 -0.15096943 -0.671
-0.14511555 -0.15119441 -0.67199999
-0.14384611 -0.15119441 -0.67199999
-0.14257666 -0.15119441 -0.67199999
-0.14130722 -0.15119441 -0.67199999
-0.14024615 -0.1514194 -0.67299998
-0.13897482 -0.1514194 -0.67299998
-0.13770349 -0.1514194 -0.67299998
-0.1368376 -0.1518694 -0.67500001
-0.13556249 -0.1518694 -0.67500001
-0.13428739 -0.1518694 -0.67500001
-0.13301226 -0.1518694 -0.67500001
-0.13193232 -0.15209438 -0.676
-0.13065532 -0.15209438 -0.676
-0.12937832 -0.15209438 -0.676
-0.12810132 -0.15209438 -0.676
-0.12682432 -0.15209438 -0.676
-0.21444699 -0.14858113 -0.65499997
-0.21320966 -0.14858113 -0.65499997
-0.21197233 -0.14858113 -0.65499997
-0.21073499 -0.14858113 -0.65499997
-0.20949766 -0.14858113 -0.65499997
-0.20826033 -0.14858113 -0.65499997
-0.20702299 -0.14858113 -0.65499997
-0.20578566 -0.14858113 -0.65499997
-0.20454834 -0.14858113 -0.65499997
-0.20331101 -0.14858113 -0.65499997
-0.20207368 -0.14858113 -0.65499997
-0.2014496 -0.14903483 -0.65700001
-0.20020849 -0.14903483 -0.65700001
-0.19896738 -0.14903483 -0.65700001
-0.19802722 -0.14926165 -0.65799999
-0.19678423 -0.14926165 -0.65799999
-0.19554122 -0.14926165 -0.65799999
-0.19429822 -0.14926165 -0.65799999
-0.19305523 -0.14926165 -0.65799999
-0.19181223 -0.14926165 -0.65799999
-0.19085884 -0.14948849 -0.65899998
-0.18961395 -0.14948849 -0.65899998
-0.18836907 -0.14948849 -0.65899998
-0.18740815 -0.14971535 -0.66000003
-0.18616137 -0.14971535 -0.66000003
-0.18547493 -0.15016903 -0.662
-0.18422438 -0.15016903 -0.662
-0.18325022 -0.15039587 -0.66299999
-0.18199778 -0.15039587 -0.66299999
-0.18101795 -0.15062271 -0.66399997
-0.17976362 -0.15062271 -0.66399997
-0.17850928 -0.15062271 -0.66399997
-0.17725495 -0.15062271 -0.66399997
-0.17653075 -0.15107639 -0.66600001
-0.17527264 -0.15107639 -0.66600001
-0.17401452 -0.15107639 -0.66600001
-0.17275642 -0.15107639 -0.66600001
-0.17149831 -0.15107639 -0.66600001
-0.17024019 -0.15107639 -0.66600001
-0.16898209 -0.15107639 -0.66600001
-0.16772398 -0.15107639 -0.66600001
-0.16646586 -0.15107639 -0.66600001
-0.16520776 -0.15107639 -0.66600001
-0.16394964 -0.15107639 -0.66600001
-0.16269153 -0.15107639 -0.66600001
-0.16143343 -0.15107639 -0.66600001
-0.16041581 -0.15130323 -0.667
-0.15915582 -0.15130323 -0.667
-0.15789582 -0.15130323 -0.667
-0.15687065 -0.15153007 -0.66799998
-0.15607466 -0.15198377 -0.67000002
-0.154809 -0.15198377 -0.67000002
-0.15377249 -0.15221061 -0.671
-0.15250494 -0.15221061 -0.671
-0.15123738 -0.15221061 -0.671
-0.14996983 -0.15221061 -0.671
-0.14870228 -0.15221061 -0.671
-0.14765444 -0.15243743 -0.67199999
-0.146385 -0.15243743 -0.67199999
-0.14511555 -0.15243743 -0.67199999
-0.14384611 -0.15243743 -0.67199999
-0.14278883 -0.15266427 -0.67299998
-0.14151749 -0.15266427 -0.67299998
-0.14024615 -0.15266427 -0.67299998
-0.13897482 -0.15266427 -0.67299998
-0.13811272 -0.15311797 -0.67500001
-0.1368376 -0.15311797 -0.67500001
-0.13576332 -0.15334481 -0.676
-0.13448632 -0.15334481 -0.676
-0.13320932 -0.15334481 -0.676
-0.13193232 -0.15334481 -0.676
-0.13065532 -0.15334481 -0.676
-0.12937832 -0.15334481 -0.676
-0.12810132 -0.15334481 -0.676
-0.21320966 -0.14979272 -0.65499997
-0.21197233 -0.14979272 -0.65499997
-0.21073499 -0.14979272 -0.65499997
-0.20949766 -0.14979272 -0.65499997
-0.20826033 -0.14979272 -0.65499997
-0.20702299 -0.14979272 -0.65499997
-0.20578566 -0.14979272 -0.65499997
-0.20517293 -0.15025011 -0.65700001
-0.20393181 -0.15025011 -0.65700001
-0.20269071 -0.15025011 -0.65700001
-0.2014496 -0.15025011 -0.65700001
-0.20020849 -0.15025011 -0.65700001
-0.19927022 -0.1504788 -0.65799999
-0.19802722 -0.1504788 -0.65799999
-0.19678423 -0.1504788 -0.65799999
-0.19583839 -0.15070748 -0.65899998
-0.1945935 -0.15070748 -0.65899998
-0.19334862 -0.15070748 -0.65899998
-0.19210373 -0.15070748 -0.65899998
-0.19114847 -0.15093619 -0.66000003
-0.18990171 -0.15093619 -0.66000003
-0.18865493 -0.15093619 -0.66000003
-0.18797605 -0.15139356 -0.662
-0.1867255 -0.15139356 -0.662
-0.1857551 -0.15162225 -0.66299999
-0.18478094 -0.15185094 -0.66399997
-0.18352661 -0.15185094 -0.66399997
-0.18227229 -0.15185094 -0.66399997
-0.18101795 -0.15185094 -0.66399997
-0.18030508 -0.15230832 -0.66600001
-0.17904697 -0.15230832 -0.66600001
-0.17778885 -0.15230832 -0.66600001
-0.17653075 -0.15230832 -0.66600001
-0.17527264 -0.15230832 -0.66600001
-0.17401452 -0.15230832 -0.66600001
-0.17275642 -0.15230832 -0.66600001
-0.17149831 -0.15230832 -0.66600001
-0.17024019 -0.15230832 -0.66600001
-0.16898209 -0.15230832 -0.66600001
-0.16772398 -0.15230832 -0.66600001
-0.16671582 -0.152537 -0.667
-0.16545582 -0.152537 -0.667
-0.16419581 -0.152537 -0.667
-0.16293581 -0.152537 -0.667
-0.16167581 -0.152537 -0.667
-0.16041581 -0.152537 -0.667
-0.15939443 -0.15276569 -0.66799998
-0.15813254 -0.15276569 -0.66799998
-0.15734033 -0.15322308 -0.67000002
-0.15630761 -0.15345177 -0.671
-0.15504006 -0.15345177 -0.671
-0.15377249 -0.15345177 -0.671
-0.15273222 -0.15368046 -0.67199999
-0.15146278 -0.15368046 -0.67199999
-0.15019333 -0.15368046 -0.67199999
