# .PCD v0.7 - Point Cloud Data file format
VERSION 0.7
FIELDS x y z
SIZE 4 4 4
TYPE F F F
COUNT 1 1 1
WIDTH 1325
HEIGHT 1
VIEWPOINT 0 0 0 1 0 0 0
POINTS 1325
DATA ascii
-0.13507916 -0.030144541 -0.72000003
-0.13371904 -0.030144541 -0.72000003
-0.13235892 -0.030144541 -0.72000003
-0.13099881 -0.030144541 -0.72000003
-0.12963869 -0.030144541 -0.72000003
-0.1281004 -0.030102672 -0.71899998
-0.12674215 -0.030102672 -0.71899998
-0.12555832 -0.030144541 -0.72000003
-0.12419821 -0.030144541 -0.72000003
-0.12283808 -0.030144541 -0.72000003
-0.12147796 -0.030144541 -0.72000003
-0.12011784 -0.030144541 -0.72000003
-0.11875772 -0.030144541 -0.72000003
-0.11739761 -0.030144541 -0.72000003
-0.11603749 -0.030144541 -0.72000003
-0.11467737 -0.030144541 -0.72000003
-0.11331724 -0.030144541 -0.72000003
-0.11180162 -0.030102672 -0.71899998
-0.11044339 -0.030102672 -0.71899998
-0.10908516 -0.030102672 -0.71899998
-0.10772693 -0.030102672 -0.71899998
-0.10636871 -0.030102672 -0.71899998
-0.10501047 -0.030102672 -0.71899998
-0.10365224 -0.030102672 -0.71899998
-0.10229401 -0.030102672 -0.71899998
-0.10093578 -0.030102672 -0.71899998
-0.099577554 -0.030102672 -0.71899998
-0.09821932 -0.030102672 -0.71899998
-0.096591659 -0.030018939 -0.71700001
-0.09523721 -0.030018939 -0.71700001
-0.093882754 -0.030018939 -0.71700001
-0.092528306 -0.030018939 -0.71700001
-0.09117385 -0.030018939 -0.71700001
-0.089819402 -0.030018939 -0.71700001
-0.088464946 -0.030018939 -0.71700001
-0.39969701 -0.039476592 -0.903
-0.39887264 -0.039564025 -0.90499997
-0.39847964 -0.039695177 -0.90799999
-0.39676437 -0.039695177 -0.90799999
-0.3950491 -0.039695177 -0.90799999
-0.39333385 -0.039695177 -0.90799999
-0.39248121 -0.039782614 -0.91000003
-0.13507916 -0.031476352 -0.72000003
-0.13371904 -0.031476352 -0.72000003
-0.13235892 -0.031476352 -0.72000003
-0.13099881 -0.031476352 -0.72000003
-0.12963869 -0.031476352 -0.72000003
-0.12827857 -0.031476352 -0.72000003
-0.12691844 -0.031476352 -0.72000003
-0.12555832 -0.031476352 -0.72000003
-0.12419821 -0.031476352 -0.72000003
-0.12283808 -0.031476352 -0.72000003
-0.12147796 -0.031476352 -0.72000003
-0.12011784 -0.031476352 -0.72000003
-0.11875772 -0.031476352 -0.72000003
-0.11739761 -0.031476352 -0.72000003
-0.11603749 -0.031476352 -0.72000003
-0.11467737 -0.031476352 -0.72000003
-0.11331724 -0.031476352 -0.72000003
-0.11195713 -0.031476352 -0.72000003
-0.11059701 -0.031476352 -0.72000003
-0.10923689 -0.031476352 -0.72000003
-0.10787677 -0.031476352 -0.72000003
-0.10651665 -0.031476352 -0.72000003
-0.10515653 -0.031476352 -0.72000003
-0.10379641 -0.031476352 -0.72000003
-0.10243629 -0.031476352 -0.72000003
-0.10093578 -0.031432636 -0.71899998
-0.099577554 -0.031432636 -0.71899998
-0.09821932 -0.031432636 -0.71899998
-0.096861087 -0.031432636 -0.71899998
-0.095502861 -0.031432636 -0.71899998
-0.093882754 -0.0313452 -0.71700001
-0.092528306 -0.0313452 -0.71700001
-0.09117385 -0.0313452 -0.71700001
-0.089819402 -0.0313452 -0.71700001
-0.088711709 -0.031432636 -0.71899998
-0.082467139 -0.032175828 -0.736
-0.081076793 -0.032175828 -0.736
-0.39969701 -0.041146908 -0.903
-0.39887264 -0.04123804 -0.90499997
-0.39716306 -0.04123804 -0.90499997
-0.39676437 -0.041374743 -0.90799999
-0.3950491 -0.041374743 -0.90799999
-0.39333385 -0.041374743 -0.90799999
-0.13545437 -0.032899298 -0.722
-0.13371904 -0.032808166 -0.72000003
-0.13235892 -0.032808166 -0.72000003
-0.13099881 -0.032808166 -0.72000003
-0.12963869 -0.032808166 -0.72000003
-0.12827857 -0.032808166 -0.72000003
-0.12691844 -0.032808166 -0.72000003
-0.12555832 -0.032808166 -0.72000003
-0.12419821 -0.032808166 -0.72000003
-0.12283808 -0.032808166 -0.72000003
-0.12147796 -0.032808166 -0.72000003
-0.12011784 -0.032808166 -0.72000003
-0.11875772 -0.032808166 -0.72000003
-0.11739761 -0.032808166 -0.72000003
-0.11603749 -0.032808166 -0.72000003
-0.11467737 -0.032808166 -0.72000003
-0.11331724 -0.032808166 -0.72000003
-0.11195713 -0.032808166 -0.72000003
-0.11059701 -0.032808166 -0.72000003
-0.10923689 -0.032808166 -0.72000003
-0.10787677 -0.032808166 -0.72000003
-0.10651665 -0.032808166 -0.72000003
-0.10515653 -0.032808166 -0.72000003
-0.10379641 -0.032808166 -0.72000003
-0.10243629 -0.032808166 -0.72000003
-0.10107617 -0.032808166 -0.72000003
-0.099716052 -0.032808166 -0.72000003
-0.09821932 -0.032762598 -0.71899998
-0.096861087 -0.032762598 -0.71899998
-0.095502861 -0.032762598 -0.71899998
-0.094144627 -0.032762598 -0.71899998
-0.092786402 -0.032762598 -0.71899998
-0.091428168 -0.032762598 -0.71899998
-0.090069935 -0.032762598 -0.71899998
-0.088835098 -0.032808166 -0.72000003
-0.082467139 -0.033537235 -0.736
-0.08085648 -0.033446103 -0.73400003
-0.079686448 -0.033537235 -0.736
-0.39881176 -0.042722389 -0.90100002
-0.39799118 -0.042817224 -0.903
-0.39716306 -0.042912055 -0.90499997
-0.39545345 -0.042912055 -0.90499997
-0.3950491 -0.043054305 -0.90799999
-0.13564198 -0.034282226 -0.72299999
-0.13409048 -0.034234811 -0.722
-0.13272658 -0.034234811 -0.722
-0.13136268 -0.034234811 -0.722
-0.12999879 -0.034234811 -0.722
-0.12863488 -0.034234811 -0.722
-0.12727098 -0.034234811 -0.722
-0.12590709 -0.034234811 -0.722
-0.12454319 -0.034234811 -0.722
-0.12317929 -0.034234811 -0.722
-0.1218154 -0.034234811 -0.722
-0.1204515 -0.034234811 -0.722
-0.11908761 -0.034234811 -0.722
-0.1177237 -0.034234811 -0.722
-0.11635981 -0.034234811 -0.722
-0.11499591 -0.034234811 -0.722
-0.11363202 -0.034234811 -0.722
-0.11226811 -0.034234811 -0.722
-0.11090422 -0.034234811 -0.722
-0.10954032 -0.034234811 -0.722
-0.10787677 -0.03413998 -0.72000003
-0.10651665 -0.03413998 -0.72000003
-0.10515653 -0.03413998 -0.72000003
-0.10379641 -0.03413998 -0.72000003
-0.10243629 -0.03413998 -0.72000003
-0.10107617 -0.03413998 -0.72000003
-0.099716052 -0.03413998 -0.72000003
-0.098355934 -0.03413998 -0.72000003
-0.096995816 -0.03413998 -0.72000003
-0.09563569 -0.03413998 -0.72000003
-0.094275571 -0.03413998 -0.72000003
-0.092915453 -0.03413998 -0.72000003
-0.091555335 -0.03413998 -0.72000003
-0.090195216 -0.03413998 -0.72000003
-0.089081854 -0.034234811 -0.722
-0.082130991 -0.034756392 -0.73299998
-0.080746315 -0.034756392 -0.73299998
-0.079469912 -0.034803811 -0.73400003
-0.3991802 -0.044241205 -0.898
-0.39881176 -0.044389006 -0.90100002
-0.39710972 -0.044389006 -0.90100002
-0.39628536 -0.04448754 -0.903
-0.39545345 -0.04458607 -0.90499997
-0.13795526 -0.035865922 -0.72799999
-0.1360172 -0.035718124 -0.72500002
-0.1342762 -0.03561959 -0.72299999
-0.13291042 -0.03561959 -0.72299999
-0.13154462 -0.03561959 -0.72299999
-0.13017884 -0.03561959 -0.72299999
-0.12863488 -0.035570323 -0.722
-0.12727098 -0.035570323 -0.722
-0.12590709 -0.035570323 -0.722
-0.12454319 -0.035570323 -0.722
-0.12317929 -0.035570323 -0.722
-0.12198412 -0.03561959 -0.72299999
-0.12061833 -0.03561959 -0.72299999
-0.11908761 -0.035570323 -0.722
-0.1177237 -0.035570323 -0.722
-0.11635981 -0.035570323 -0.722
-0.11499591 -0.035570323 -0.722
-0.11363202 -0.035570323 -0.722
-0.11226811 -0.035570323 -0.722
-0.11090422 -0.035570323 -0.722
-0.10954032 -0.035570323 -0.722
-0.10817643 -0.035570323 -0.722
-0.10681252 -0.035570323 -0.722
-0.10544863 -0.035570323 -0.722
-0.10408473 -0.035570323 -0.722
-0.10272083 -0.035570323 -0.722
-0.10135693 -0.035570323 -0.722
-0.099993035 -0.035570323 -0.722
-0.098629139 -0.035570323 -0.722
-0.097265244 -0.035570323 -0.722
-0.09563569 -0.035471793 -0.72000003
-0.094275571 -0.035471793 -0.72000003
-0.093173549 -0.035570323 -0.722
-0.091809653 -0.035570323 -0.722
-0.090445757 -0.035570323 -0.722
-0.089205235 -0.03561959 -0.72299999
-0.08808244 -0.035718124 -0.72500002
-0.083173864 -0.035964455 -0.73000002
-0.0819069 -0.036013722 -0.73100001
-0.080526002 -0.036013722 -0.73100001
-0.07936164 -0.036112253 -0.73299998
-0.077976964 -0.036112253 -0.73299998
-0.3991802 -0.045902275 -0.898
-0.39881176 -0.046055622 -0.90100002
-0.39710972 -0.046055622 -0.90100002
-0.39540768 -0.046055622 -0.90100002
-0.39457956 -0.046157852 -0.903
-0.13971327 -0.037314765 -0.73000002
-0.13795526 -0.037212532 -0.72799999
-0.13620481 -0.037110303 -0.72600001
-0.13464764 -0.037059188 -0.72500002
-0.13327807 -0.037059188 -0.72500002
-0.13190851 -0.037059188 -0.72500002
-0.13017884 -0.036956951 -0.72299999
-0.12881304 -0.036956951 -0.72299999
-0.12744726 -0.036956951 -0.72299999
-0.12608148 -0.036956951 -0.72299999
-0.12471569 -0.036956951 -0.72299999
-0.12334991 -0.036956951 -0.72299999
-0.12198412 -0.036956951 -0.72299999
-0.12061833 -0.036956951 -0.72299999
-0.11925254 -0.036956951 -0.72299999
-0.11788675 -0.036956951 -0.72299999
-0.11652097 -0.036956951 -0.72299999
-0.11515518 -0.036956951 -0.72299999
-0.11363202 -0.036905836 -0.722
-0.11226811 -0.036905836 -0.722
-0.11090422 -0.036905836 -0.722
-0.10954032 -0.036905836 -0.722
-0.10817643 -0.036905836 -0.722
-0.10681252 -0.036905836 -0.722
-0.10544863 -0.036905836 -0.722
-0.10408473 -0.036905836 -0.722
-0.10272083 -0.036905836 -0.722
-0.10135693 -0.036905836 -0.722
-0.099993035 -0.036905836 -0.722
-0.098629139 -0.036905836 -0.722
-0.097265244 -0.036905836 -0.722
-0.095901348 -0.036905836 -0.722
-0.094537444 -0.036905836 -0.722
-0.093173549 -0.036905836 -0.722
-0.091809653 -0.036905836 -0.722
-0.090571024 -0.036956951 -0.72299999
-0.089205235 -0.036956951 -0.72299999
-0.08808244 -0.037059188 -0.72500002
-0.086712874 -0.037059188 -0.72500002
-0.08546102 -0.037110303 -0.72600001
-0.084321216 -0.037212532 -0.72799999
-0.082945988 -0.037212532 -0.72799999
-0.081794858 -0.037314765 -0.73000002
-0.080415845 -0.037314765 -0.73000002
-0.079145104 -0.037365884 -0.73100001
-0.077764206 -0.037365884 -0.73100001
-0.076383308 -0.037365884 -0.73100001
-0.39998376 -0.047457408 -0.89600003
-0.3991802 -0.047563341 -0.898
-0.39748383 -0.047563341 -0.898
-0.39710972 -0.047722239 -0.90100002
-0.39540768 -0.047722239 -0.90100002
-0.39457956 -0.047828168 -0.903
-0.14582615 -0.038823973 -0.73299998
-0.14444147 -0.038823973 -0.73299998
-0.14266646 -0.038718041 -0.73100001
-0.14109229 -0.038665079 -0.73000002
-0.13971327 -0.038665079 -0.73000002
-0.13795526 -0.038559143 -0.72799999
-0.13658004 -0.038559143 -0.72799999
-0.13483337 -0.038453214 -0.72600001
-0.13346191 -0.038453214 -0.72600001
-0.13209045 -0.038453214 -0.72600001
-0.13053896 -0.038400248 -0.72500002
-0.12916939 -0.038400248 -0.72500002
-0.12779982 -0.038400248 -0.72500002
-0.12643026 -0.038400248 -0.72500002
-0.12506069 -0.038400248 -0.72500002
-0.12369113 -0.038400248 -0.72500002
-0.12232156 -0.038400248 -0.72500002
-0.120952 -0.038400248 -0.72500002
-0.11925254 -0.038294315 -0.72299999
-0.11788675 -0.038294315 -0.72299999
-0.11652097 -0.038294315 -0.72299999
-0.11515518 -0.038294315 -0.72299999
-0.11378939 -0.038294315 -0.72299999
-0.11242361 -0.038294315 -0.72299999
-0.11105783 -0.038294315 -0.72299999
-0.10969204 -0.038294315 -0.72299999
-0.10832625 -0.038294315 -0.72299999
-0.10696046 -0.038294315 -0.72299999
-0.10559468 -0.038294315 -0.72299999
-0.10422889 -0.038294315 -0.72299999
-0.1028631 -0.038294315 -0.72299999
-0.10149731 -0.038294315 -0.72299999
-0.10013153 -0.038294315 -0.72299999
-0.098765746 -0.038294315 -0.72299999
-0.097399957 -0.038294315 -0.72299999
-0.096034169 -0.038294315 -0.72299999
-0.094668381 -0.038294315 -0.72299999
-0.0933026 -0.038294315 -0.72299999
-0.091936812 -0.038294315 -0.72299999
-0.090571024 -0.038294315 -0.72299999
-0.089452006 -0.038400248 -0.72500002
-0.08808244 -0.038400248 -0.72500002
-0.086832479 -0.038453214 -0.72600001
-0.08546102 -0.038453214 -0.72600001
-0.084321216 -0.038559143 -0.72799999
-0.082945988 -0.038559143 -0.72799999
-0.081570752 -0.038559143 -0.72799999
-0.080415845 -0.038665079 -0.73000002
-0.079036832 -0.038665079 -0.73000002
-0.077657826 -0.038665079 -0.73000002
-0.076278813 -0.038665079 -0.73000002
-0.074899808 -0.038665079 -0.73000002
-0.39998376 -0.049114779 -0.89600003
-0.39829117 -0.049114779 -0.89600003
-0.39748383 -0.049224406 -0.898
-0.39578748 -0.049224406 -0.898
-0.39540768 -0.049388856 -0.90100002
-0.14721082 -0.04017983 -0.73299998
-0.14582615 -0.04017983 -0.73299998
-0.14404736 -0.040070202 -0.73100001
-0.14266646 -0.040070202 -0.73100001
-0.14109229 -0.040015388 -0.73000002
-0.13971327 -0.040015388 -0.73000002
-0.13833426 -0.040015388 -0.73000002
-0.13658004 -0.039905753 -0.72799999
-0.13520479 -0.039905753 -0.72799999
-0.13382956 -0.039905753 -0.72799999
-0.13245434 -0.039905753 -0.72799999
-0.13071901 -0.039796125 -0.72600001
-0.12934755 -0.039796125 -0.72600001
-0.12797609 -0.039796125 -0.72600001
-0.12660463 -0.039796125 -0.72600001
-0.12523319 -0.039796125 -0.72600001
-0.12386173 -0.039796125 -0.72600001
-0.12249028 -0.039796125 -0.72600001
-0.12111882 -0.039796125 -0.72600001
-0.11958243 -0.039741311 -0.72500002
-0.11821286 -0.039741311 -0.72500002
-0.1168433 -0.039741311 -0.72500002
-0.11547373 -0.039741311 -0.72500002
-0.11378939 -0.039631676 -0.72299999
-0.11242361 -0.039631676 -0.72299999
-0.11105783 -0.039631676 -0.72299999
-0.10969204 -0.039631676 -0.72299999
-0.10832625 -0.039631676 -0.72299999
-0.10696046 -0.039631676 -0.72299999
-0.10559468 -0.039631676 -0.72299999
-0.10422889 -0.039631676 -0.72299999
-0.1028631 -0.039631676 -0.72299999
-0.10149731 -0.039631676 -0.72299999
-0.10013153 -0.039631676 -0.72299999
-0.098765746 -0.039631676 -0.72299999
-0.097399957 -0.039631676 -0.72299999
-0.096034169 -0.039631676 -0.72299999
-0.094668381 -0.039631676 -0.72299999
-0.0933026 -0.039631676 -0.72299999
-0.092191137 -0.039741311 -0.72500002
-0.090821572 -0.039741311 -0.72500002
-0.089452006 -0.039741311 -0.72500002
-0.088203929 -0.039796125 -0.72600001
-0.086832479 -0.039796125 -0.72600001
-0.08546102 -0.039796125 -0.72600001
-0.084321216 -0.039905753 -0.72799999
-0.082945988 -0.039905753 -0.72799999
-0.081570752 -0.039905753 -0.72799999
-0.080415845 -0.040015388 -0.73000002
-0.079036832 -0.040015388 -0.73000002
-0.077657826 -0.040015388 -0.73000002
-0.076278813 -0.040015388 -0.73000002
-0.074899808 -0.040015388 -0.73000002
-0.073621504 -0.040070202 -0.73100001
-0.39998376 -0.050772145 -0.89600003
-0.39829117 -0.050772145 -0.89600003
-0.39659858 -0.050772145 -0.89600003
-0.39490598 -0.050772145 -0.89600003
-0.39540768 -0.051055469 -0.90100002
-0.1485955 -0.04153569 -0.73299998
-0.14721082 -0.04153569 -0.73299998
-0.14542826 -0.041422363 -0.73100001
-0.14404736 -0.041422363 -0.73100001
-0.14266646 -0.041422363 -0.73100001
-0.14109229 -0.041365698 -0.73000002
-0.13971327 -0.041365698 -0.73000002
-0.13833426 -0.041365698 -0.73000002
-0.13695526 -0.041365698 -0.73000002
-0.13520479 -0.041252363 -0.72799999
-0.13382956 -0.041252363 -0.72799999
-0.13245434 -0.041252363 -0.72799999
-0.13107911 -0.041252363 -0.72799999
-0.12970386 -0.041252363 -0.72799999
-0.12832864 -0.041252363 -0.72799999
-0.12695341 -0.041252363 -0.72799999
-0.12557818 -0.041252363 -0.72799999
-0.12420294 -0.041252363 -0.72799999
-0.12282771 -0.041252363 -0.72799999
-0.12111882 -0.041139036 -0.72600001
-0.11974737 -0.041139036 -0.72600001
-0.11837591 -0.041139036 -0.72600001
-0.11700446 -0.041139036 -0.72600001
-0.11563301 -0.041139036 -0.72600001
-0.11426155 -0.041139036 -0.72600001
-0.1128901 -0.041139036 -0.72600001
-0.11136504 -0.041082371 -0.72500002
-0.10999548 -0.041082371 -0.72500002
-0.10862591 -0.041082371 -0.72500002
-0.10725635 -0.041082371 -0.72500002
-0.10588678 -0.041082371 -0.72500002
-0.10451721 -0.041082371 -0.72500002
-0.10314766 -0.041082371 -0.72500002
-0.10177809 -0.041082371 -0.72500002
-0.10040852 -0.041082371 -0.72500002
-0.099038959 -0.041082371 -0.72500002
-0.097669393 -0.041082371 -0.72500002
-0.096299827 -0.041082371 -0.72500002
-0.094930261 -0.041082371 -0.72500002
-0.093560703 -0.041082371 -0.72500002
-0.092318296 -0.041139036 -0.72600001
-0.090946838 -0.041139036 -0.72600001
-0.089575388 -0.041139036 -0.72600001
-0.088203929 -0.041139036 -0.72600001
-0.086832479 -0.041139036 -0.72600001
-0.085696451 -0.041252363 -0.72799999
-0.084321216 -0.041252363 -0.72799999
-0.082945988 -0.041252363 -0.72799999
-0.081570752 -0.041252363 -0.72799999
-0.080415845 -0.041365698 -0.73000002
-0.079036832 -0.041365698 -0.73000002
-0.077657826 -0.041365698 -0.73000002
-0.076278813 -0.041365698 -0.73000002
-0.074899808 -0.041365698 -0.73000002
-0.073621504 -0.041422363 -0.73100001
-0.39998376 -0.052429512 -0.89600003
-0.39829117 -0.052429512 -0.89600003
-0.39659858 -0.052429512 -0.89600003
-0.39490598 -0.052429512 -0.89600003
-0.1485955 -0.042891551 -0.73299998
-0.14680916 -0.042774521 -0.73100001
-0.14542826 -0.042774521 -0.73100001
-0.14404736 -0.042774521 -0.73100001
-0.14266646 -0.042774521 -0.73100001
-0.14109229 -0.042716008 -0.73000002
-0.13971327 -0.042716008 -0.73000002
-0.13833426 -0.042716008 -0.73000002
-0.13695526 -0.042716008 -0.73000002
-0.13557625 -0.042716008 -0.73000002
-0.13382956 -0.042598974 -0.72799999
-0.13245434 -0.042598974 -0.72799999
-0.13107911 -0.042598974 -0.72799999
-0.12970386 -0.042598974 -0.72799999
-0.12832864 -0.042598974 -0.72799999
-0.12695341 -0.042598974 -0.72799999
-0.12557818 -0.042598974 -0.72799999
-0.12420294 -0.042598974 -0.72799999
-0.12282771 -0.042598974 -0.72799999
-0.12145248 -0.042598974 -0.72799999
-0.12007724 -0.042598974 -0.72799999
-0.11870202 -0.042598974 -0.72799999
-0.11732678 -0.042598974 -0.72799999
-0.11563301 -0.042481948 -0.72600001
-0.11426155 -0.042481948 -0.72600001
-0.1128901 -0.042481948 -0.72600001
-0.11151864 -0.042481948 -0.72600001
-0.11014719 -0.042481948 -0.72600001
-0.10877574 -0.042481948 -0.72600001
-0.10740428 -0.042481948 -0.72600001
-0.10603283 -0.042481948 -0.72600001
-0.10466138 -0.042481948 -0.72600001
-0.10328992 -0.042481948 -0.72600001
-0.10191847 -0.042481948 -0.72600001
-0.10054702 -0.042481948 -0.72600001
-0.099175565 -0.042481948 -0.72600001
-0.097804107 -0.042481948 -0.72600001
-0.096432656 -0.042481948 -0.72600001
-0.095061198 -0.042481948 -0.72600001
-0.093689747 -0.042481948 -0.72600001
-0.092318296 -0.042481948 -0.72600001
-0.091197379 -0.042598974 -0.72799999
-0.089822143 -0.042598974 -0.72799999
-0.088446915 -0.042598974 -0.72799999
-0.08707168 -0.042598974 -0.72799999
-0.085696451 -0.042598974 -0.72799999
-0.084321216 -0.042598974 -0.72799999
-0.082945988 -0.042598974 -0.72799999
-0.081570752 -0.042598974 -0.72799999
-0.080195524 -0.042598974 -0.72799999
-0.079036832 -0.042716008 -0.73000002
-0.077657826 -0.042716008 -0.73000002
-0.076383308 -0.042774521 -0.73100001
-0.075002402 -0.042774521 -0.73100001
-0.07382293 -0.042891551 -0.73299998
-0.39998376 -0.054086879 -0.89600003
-0.39829117 -0.054086879 -0.89600003
-0.39659858 -0.054086879 -0.89600003
-0.39490598 -0.054086879 -0.89600003
-0.15059401 -0.044428505 -0.736
-0.1485955 -0.044247411 -0.73299998
-0.14721082 -0.044247411 -0.73299998
-0.14542826 -0.044126682 -0.73100001
-0.14404736 -0.044126682 -0.73100001
-0.14266646 -0.044126682 -0.73100001
-0.14109229 -0.044066317 -0.73000002
-0.13971327 -0.044066317 -0.73000002
-0.13833426 -0.044066317 -0.73000002
-0.13695526 -0.044066317 -0.73000002
-0.13557625 -0.044066317 -0.73000002
-0.13419724 -0.044066317 -0.73000002
-0.13281822 -0.044066317 -0.73000002
-0.13143921 -0.044066317 -0.73000002
-0.13006021 -0.044066317 -0.73000002
-0.12832864 -0.043945588 -0.72799999
-0.12695341 -0.043945588 -0.72799999
-0.12592317 -0.044066317 -0.73000002
-0.12454417 -0.044066317 -0.73000002
-0.12316515 -0.044066317 -0.73000002
-0.12145248 -0.043945588 -0.72799999
-0.12007724 -0.043945588 -0.72799999
-0.11870202 -0.043945588 -0.72799999
-0.11732678 -0.043945588 -0.72799999
-0.11595155 -0.043945588 -0.72799999
-0.11457632 -0.043945588 -0.72799999
-0.11320109 -0.043945588 -0.72799999
-0.11182585 -0.043945588 -0.72799999
-0.11045063 -0.043945588 -0.72799999
-0.10877574 -0.043824859 -0.72600001
-0.10740428 -0.043824859 -0.72600001
-0.10603283 -0.043824859 -0.72600001
-0.10466138 -0.043824859 -0.72600001
-0.10328992 -0.043824859 -0.72600001
-0.10219923 -0.043945588 -0.72799999
-0.100824 -0.043945588 -0.72799999
-0.09944877 -0.043945588 -0.72799999
-0.098073535 -0.043945588 -0.72799999
-0.096698307 -0.043945588 -0.72799999
-0.095323071 -0.043945588 -0.72799999
-0.093947843 -0.043945588 -0.72799999
-0.092572607 -0.043945588 -0.72799999
-0.091197379 -0.043945588 -0.72799999
-0.089822143 -0.043945588 -0.72799999
-0.088446915 -0.043945588 -0.72799999
-0.08707168 -0.043945588 -0.72799999
-0.085696451 -0.043945588 -0.72799999
-0.084321216 -0.043945588 -0.72799999
-0.082945988 -0.043945588 -0.72799999
-0.081570752 -0.043945588 -0.72799999
-0.080195524 -0.043945588 -0.72799999
-0.079036832 -0.044066317 -0.73000002
-0.077657826 -0.044066317 -0.73000002
-0.076383308 -0.044126682 -0.73100001
-0.075002402 -0.044126682 -0.73100001
-0.073923647 -0.04430778 -0.73400003
-0.39998376 -0.055744246 -0.89600003
-0.39829117 -0.055744246 -0.89600003
-0.39659858 -0.055744246 -0.89600003
-0.39490598 -0.055744246 -0.89600003
-0.39321339 -0.055744246 -0.89600003
-0.15059401 -0.045789916 -0.736
-0.14879823 -0.045665488 -0.73400003
-0.14721082 -0.045603272 -0.73299998
-0.14582615 -0.045603272 -0.73299998
-0.14444147 -0.045603272 -0.73299998
-0.14266646 -0.045478843 -0.73100001
-0.14128557 -0.045478843 -0.73100001
-0.13971327 -0.045416627 -0.73000002
-0.13833426 -0.045416627 -0.73000002
-0.13695526 -0.045416627 -0.73000002
-0.13557625 -0.045416627 -0.73000002
-0.13419724 -0.045416627 -0.73000002
-0.13281822 -0.045416627 -0.73000002
-0.13143921 -0.045416627 -0.73000002
-0.13006021 -0.045416627 -0.73000002
-0.1286812 -0.045416627 -0.73000002
-0.12730218 -0.045416627 -0.73000002
-0.12592317 -0.045416627 -0.73000002
-0.12454417 -0.045416627 -0.73000002
-0.12316515 -0.045416627 -0.73000002
-0.12178615 -0.045416627 -0.73000002
-0.12040713 -0.045416627 -0.73000002
-0.11902813 -0.045416627 -0.73000002
-0.11764912 -0.045416627 -0.73000002
-0.1162701 -0.045416627 -0.73000002
-0.1148911 -0.045416627 -0.73000002
-0.11320109 -0.045292199 -0.72799999
-0.11182585 -0.045292199 -0.72799999
-0.11045063 -0.045292199 -0.72799999
-0.10907539 -0.045292199 -0.72799999
-0.10770016 -0.045292199 -0.72799999
-0.10632493 -0.045292199 -0.72799999
-0.1049497 -0.045292199 -0.72799999
-0.10357446 -0.045292199 -0.72799999
-0.10219923 -0.045292199 -0.72799999
-0.100824 -0.045292199 -0.72799999
-0.099721983 -0.045416627 -0.73000002
-0.098342977 -0.045416627 -0.73000002
-0.096963964 -0.045416627 -0.73000002
-0.095584951 -0.045416627 -0.73000002
-0.094205946 -0.045416627 -0.73000002
-0.092826933 -0.045416627 -0.73000002
-0.091197379 -0.045292199 -0.72799999
-0.089822143 -0.045292199 -0.72799999
-0.088446915 -0.045292199 -0.72799999
-0.08707168 -0.045292199 -0.72799999
-0.085696451 -0.045292199 -0.72799999
-0.084321216 -0.045292199 -0.72799999
-0.082945988 -0.045292199 -0.72799999
-0.081570752 -0.045292199 -0.72799999
-0.080195524 -0.045292199 -0.72799999
-0.079036832 -0.045416627 -0.73000002
-0.077657826 -0.045416627 -0.73000002
-0.076383308 -0.045478843 -0.73100001
-0.075002402 -0.045478843 -0.73100001
-0.073923647 -0.045665488 -0.73400003
-0.072734728 -0.045789916 -0.736
-0.069402114 -0.046349846 -0.745
-0.067994766 -0.046349846 -0.745
-0.39998376 -0.057401612 -0.89600003
-0.39829117 -0.057401612 -0.89600003
-0.39659858 -0.057401612 -0.89600003
-0.39490598 -0.057401612 -0.89600003
-0.39321339 -0.057401612 -0.89600003
-0.39064687 -0.057273481 -0.89399999
-0.15219085 -0.047215387 -0.73699999
-0.15059401 -0.047151323 -0.736
-0.14879823 -0.047023196 -0.73400003
-0.14741166 -0.047023196 -0.73400003
-0.14582615 -0.046959128 -0.73299998
-0.14444147 -0.046959128 -0.73299998
-0.1430568 -0.046959128 -0.73299998
-0.14128557 -0.046831001 -0.73100001
-0.13990466 -0.046831001 -0.73100001
-0.13852376 -0.046831001 -0.73100001
-0.13714287 -0.046831001 -0.73100001
-0.13576196 -0.046831001 -0.73100001
-0.13438107 -0.046831001 -0.73100001
-0.13300017 -0.046831001 -0.73100001
-0.13161927 -0.046831001 -0.73100001
-0.13023837 -0.046831001 -0.73100001
-0.12885746 -0.046831001 -0.73100001
-0.12747657 -0.046831001 -0.73100001
-0.12609567 -0.046831001 -0.73100001
-0.12471477 -0.046831001 -0.73100001
-0.12333387 -0.046831001 -0.73100001
-0.12178615 -0.046766941 -0.73000002
-0.12040713 -0.046766941 -0.73000002
-0.11902813 -0.046766941 -0.73000002
-0.11764912 -0.046766941 -0.73000002
-0.1162701 -0.046766941 -0.73000002
-0.1148911 -0.046766941 -0.73000002
-0.11351208 -0.046766941 -0.73000002
-0.11213308 -0.046766941 -0.73000002
-0.11075407 -0.046766941 -0.73000002
-0.10937505 -0.046766941 -0.73000002
-0.10799605 -0.046766941 -0.73000002
-0.10661703 -0.046766941 -0.73000002
-0.10523803 -0.046766941 -0.73000002
-0.10385901 -0.046766941 -0.73000002
-0.10248 -0.046766941 -0.73000002
-0.101101 -0.046766941 -0.73000002
-0.099721983 -0.046766941 -0.73000002
-0.098342977 -0.046766941 -0.73000002
-0.096963964 -0.046766941 -0.73000002
-0.095584951 -0.046766941 -0.73000002
-0.094205946 -0.046766941 -0.73000002
-0.092826933 -0.046766941 -0.73000002
-0.091447927 -0.046766941 -0.73000002
-0.090068914 -0.046766941 -0.73000002
-0.088689908 -0.046766941 -0.73000002
-0.087310895 -0.046766941 -0.73000002
-0.085696451 -0.046638809 -0.72799999
-0.084321216 -0.046638809 -0.72799999
-0.082945988 -0.046638809 -0.72799999
-0.081570752 -0.046638809 -0.72799999
-0.080415845 -0.046766941 -0.73000002
-0.079036832 -0.046766941 -0.73000002
-0.077764206 -0.046831001 -0.73100001
-0.076383308 -0.046831001 -0.73100001
-0.075207606 -0.046959128 -0.73299998
-0.073923647 -0.047023196 -0.73400003
-0.072734728 -0.047151323 -0.736
-0.071635194 -0.047343519 -0.73900002
-0.070524313 -0.04753571 -0.74199998
-0.069402114 -0.047727901 -0.745
-0.067994766 -0.047727901 -0.745
-0.066587418 -0.047727901 -0.745
-0.39998376 -0.059058979 -0.89600003
-0.39829117 -0.059058979 -0.89600003
-0.39659858 -0.059058979 -0.89600003
-0.39490598 -0.059058979 -0.89600003
-0.39321339 -0.059058979 -0.89600003
-0.15219085 -0.048578646 -0.73699999
-0.15059401 -0.048512731 -0.736
-0.14879823 -0.048380908 -0.73400003
-0.14741166 -0.048380908 -0.73400003
-0.14602509 -0.048380908 -0.73400003
-0.14463852 -0.048380908 -0.73400003
-0.1430568 -0.048314989 -0.73299998
-0.1416721 -0.048314989 -0.73299998
-0.14028743 -0.048314989 -0.73299998
-0.13890275 -0.048314989 -0.73299998
-0.13714287 -0.048183162 -0.73100001
-0.13576196 -0.048183162 -0.73100001
-0.13474873 -0.048314989 -0.73299998
-0.13336405 -0.048314989 -0.73299998
-0.13197938 -0.048314989 -0.73299998
-0.1305947 -0.048314989 -0.73299998
-0.12921001 -0.048314989 -0.73299998
-0.12782533 -0.048314989 -0.73299998
-0.12644066 -0.048314989 -0.73299998
-0.12505598 -0.048314989 -0.73299998
-0.12367131 -0.048314989 -0.73299998
-0.12195297 -0.048183162 -0.73100001
-0.12057208 -0.048183162 -0.73100001
-0.11919118 -0.048183162 -0.73100001
-0.11781028 -0.048183162 -0.73100001
-0.11642938 -0.048183162 -0.73100001
-0.11504848 -0.048183162 -0.73100001
-0.11366758 -0.048183162 -0.73100001
-0.11213308 -0.04811725 -0.73000002
-0.11075407 -0.04811725 -0.73000002
-0.10937505 -0.04811725 -0.73000002
-0.10799605 -0.04811725 -0.73000002
-0.10661703 -0.04811725 -0.73000002
-0.10523803 -0.04811725 -0.73000002
-0.10385901 -0.04811725 -0.73000002
-0.10248 -0.04811725 -0.73000002
-0.101101 -0.04811725 -0.73000002
-0.099858589 -0.048183162 -0.73100001
-0.098477691 -0.048183162 -0.73100001
-0.097096793 -0.048183162 -0.73100001
-0.095715895 -0.048183162 -0.73100001
-0.09433499 -0.048183162 -0.73100001
-0.092954092 -0.048183162 -0.73100001
-0.091573194 -0.048183162 -0.73100001
-0.090192296 -0.048183162 -0.73100001
-0.088689908 -0.04811725 -0.73000002
-0.087310895 -0.04811725 -0.73000002
-0.085931882 -0.04811725 -0.73000002
-0.084552877 -0.04811725 -0.73000002
-0.083173864 -0.04811725 -0.73000002
-0.081794858 -0.04811725 -0.73000002
-0.080415845 -0.04811725 -0.73000002
-0.079145104 -0.048183162 -0.73100001
-0.077764206 -0.048183162 -0.73100001
-0.076592281 -0.048314989 -0.73299998
-0.075310215 -0.048380908 -0.73400003
-0.073923647 -0.048380908 -0.73400003
-0.072734728 -0.048512731 -0.736
-0.071635194 -0.048710477 -0.73900002
-0.070524313 -0.048908215 -0.74199998
-0.069122635 -0.048908215 -0.74199998
-0.067994766 -0.049105957 -0.745
-0.066587418 -0.049105957 -0.745
-0.39998376 -0.060716346 -0.89600003
-0.39829117 -0.060716346 -0.89600003
-0.39659858 -0.060716346 -0.89600003
-0.39490598 -0.060716346 -0.89600003
-0.15219085 -0.049941905 -0.73699999
-0.15079862 -0.049941905 -0.73699999
-0.14920367 -0.049874142 -0.736
-0.14741166 -0.049738616 -0.73400003
-0.14602509 -0.049738616 -0.73400003
-0.14463852 -0.049738616 -0.73400003
-0.14325196 -0.049738616 -0.73400003
-0.1418654 -0.049738616 -0.73400003
-0.14028743 -0.049670849 -0.73299998
-0.13890275 -0.049670849 -0.73299998
-0.13751808 -0.049670849 -0.73299998
-0.1361334 -0.049670849 -0.73299998
-0.13474873 -0.049670849 -0.73299998
-0.13336405 -0.049670849 -0.73299998
-0.13197938 -0.049670849 -0.73299998
-0.13077287 -0.049738616 -0.73400003
-0.12938631 -0.049738616 -0.73400003
-0.12799974 -0.049738616 -0.73400003
-0.12661317 -0.049738616 -0.73400003
-0.1252266 -0.049738616 -0.73400003
-0.12384003 -0.049738616 -0.73400003
-0.12228663 -0.049670849 -0.73299998
-0.12090195 -0.049670849 -0.73299998
-0.11951727 -0.049670849 -0.73299998
-0.1181326 -0.049670849 -0.73299998
-0.11674792 -0.049670849 -0.73299998
-0.11536325 -0.049670849 -0.73299998
-0.11397856 -0.049670849 -0.73299998
-0.11259389 -0.049670849 -0.73299998
-0.11090578 -0.049535323 -0.73100001
-0.10952488 -0.049535323 -0.73100001
-0.10843986 -0.049670849 -0.73299998
-0.10705518 -0.049670849 -0.73299998
-0.1056705 -0.049670849 -0.73299998
-0.10428583 -0.049670849 -0.73299998
-0.10290115 -0.049670849 -0.73299998
-0.10151647 -0.049670849 -0.73299998
-0.10013179 -0.049670849 -0.73299998
-0.098747119 -0.049670849 -0.73299998
-0.097362444 -0.049670849 -0.73299998
-0.095977768 -0.049670849 -0.73299998
-0.094593085 -0.049670849 -0.73299998
-0.09320841 -0.049670849 -0.73299998
-0.091823734 -0.049670849 -0.73299998
-0.090439059 -0.049670849 -0.73299998
-0.089054376 -0.049670849 -0.73299998
-0.087430499 -0.049535323 -0.73100001
-0.086049601 -0.049535323 -0.73100001
-0.084668696 -0.049535323 -0.73100001
-0.083173864 -0.04946756 -0.73000002
-0.081794858 -0.04946756 -0.73000002
-0.080526002 -0.049535323 -0.73100001
-0.07936164 -0.049670849 -0.73299998
-0.077976964 -0.049670849 -0.73299998
-0.076696783 -0.049738616 -0.73400003
-0.075310215 -0.049738616 -0.73400003
-0.074125074 -0.049874142 -0.736
-0.072833553 -0.049941905 -0.73699999
-0.071635194 -0.050077435 -0.73900002
-0.070524313 -0.050280724 -0.74199998
-0.069122635 -0.050280724 -0.74199998
-0.067903496 -0.050416254 -0.74400002
-0.066587418 -0.050484017 -0.745
-0.065355048 -0.050619543 -0.74699998
-0.39998376 -0.062373716 -0.89600003
-0.39829117 -0.062373716 -0.89600003
-0.39659858 -0.062373716 -0.89600003
-0.15301685 -0.051583618 -0.741
-0.15079862 -0.051305164 -0.73699999
-0.14940639 -0.051305164 -0.73699999
-0.14781332 -0.051235549 -0.736
-0.14642298 -0.051235549 -0.736
-0.14503263 -0.051235549 -0.736
-0.14325196 -0.051096324 -0.73400003
-0.1418654 -0.051096324 -0.73400003
-0.14047883 -0.051096324 -0.73400003
-0.13909227 -0.051096324 -0.73400003
-0.1377057 -0.051096324 -0.73400003
-0.13631913 -0.051096324 -0.73400003
-0.13493256 -0.051096324 -0.73400003
-0.13354599 -0.051096324 -0.73400003
-0.13215943 -0.051096324 -0.73400003
-0.13077287 -0.051096324 -0.73400003
-0.12938631 -0.051096324 -0.73400003
-0.12799974 -0.051096324 -0.73400003
-0.12661317 -0.051096324 -0.73400003
-0.1252266 -0.051096324 -0.73400003
-0.12384003 -0.051096324 -0.73400003
-0.12245347 -0.051096324 -0.73400003
-0.12106691 -0.051096324 -0.73400003
-0.11968034 -0.051096324 -0.73400003
-0.11829377 -0.051096324 -0.73400003
-0.1169072 -0.051096324 -0.73400003
-0.11552063 -0.051096324 -0.73400003
-0.11413407 -0.051096324 -0.73400003
-0.11274751 -0.051096324 -0.73400003
-0.11136094 -0.051096324 -0.73400003
-0.10997437 -0.051096324 -0.73400003
-0.10858781 -0.051096324 -0.73400003
-0.10720124 -0.051096324 -0.73400003
-0.10581467 -0.051096324 -0.73400003
-0.10442811 -0.051096324 -0.73400003
-0.10304154 -0.051096324 -0.73400003
-0.10165498 -0.051096324 -0.73400003
-0.10026841 -0.051096324 -0.73400003
-0.098881841 -0.051096324 -0.73400003
-0.097495273 -0.051096324 -0.73400003
-0.096108712 -0.051096324 -0.73400003
-0.094722144 -0.051096324 -0.73400003
-0.093335576 -0.051096324 -0.73400003
-0.091949008 -0.051096324 -0.73400003
-0.09056244 -0.051096324 -0.73400003
-0.08917588 -0.051096324 -0.73400003
-0.0876697 -0.051026709 -0.73299998
-0.086285025 -0.051026709 -0.73299998
-0.084900349 -0.051026709 -0.73299998
-0.083515674 -0.051026709 -0.73299998
-0.082130991 -0.051026709 -0.73299998
-0.080746315 -0.051026709 -0.73299998
-0.079469912 -0.051096324 -0.73400003
-0.078083344 -0.051096324 -0.73400003
-0.076696783 -0.051096324 -0.73400003
-0.075515419 -0.051235549 -0.736
-0.074125074 -0.051235549 -0.736
-0.072833553 -0.051305164 -0.73699999
-0.071635194 -0.051444393 -0.73900002
-0.070429273 -0.051583618 -0.741
-0.069122635 -0.051653229 -0.74199998
-0.067720957 -0.051653229 -0.74199998
-0.066498041 -0.051792458 -0.74400002
-0.065180071 -0.051862072 -0.745
-0.39943483 -0.063673764 -0.89099997
-0.39909095 -0.063888155 -0.89399999
-0.39740211 -0.063888155 -0.89399999
-0.15322335 -0.053025737 -0.74199998
-0.15161707 -0.052954275 -0.741
-0.14981183 -0.052811351 -0.73900002
-0.14841583 -0.052811351 -0.73900002
-0.14662193 -0.052668422 -0.73699999
-0.14503263 -0.05259696 -0.736
-0.14364229 -0.05259696 -0.736
-0.14225194 -0.05259696 -0.736
-0.1408616 -0.05259696 -0.736
-0.13947126 -0.05259696 -0.736
-0.1377057 -0.052454032 -0.73400003
-0.13631913 -0.052454032 -0.73400003
-0.13530022 -0.05259696 -0.736
-0.13390988 -0.05259696 -0.736
-0.13251953 -0.05259696 -0.736
-0.13112919 -0.05259696 -0.736
-0.12973885 -0.05259696 -0.736
-0.1283485 -0.05259696 -0.736
-0.12695816 -0.05259696 -0.736
-0.12556781 -0.05259696 -0.736
-0.12417747 -0.05259696 -0.736
-0.12278713 -0.05259696 -0.736
-0.12139678 -0.05259696 -0.736
-0.12000643 -0.05259696 -0.736
-0.11861609 -0.05259696 -0.736
-0.11722575 -0.05259696 -0.736
-0.11583541 -0.05259696 -0.736
-0.11413407 -0.052454032 -0.73400003
-0.11274751 -0.052454032 -0.73400003
-0.11136094 -0.052454032 -0.73400003
-0.10997437 -0.052454032 -0.73400003
-0.10858781 -0.052454032 -0.73400003
-0.10720124 -0.052454032 -0.73400003
-0.10581467 -0.052454032 -0.73400003
-0.10442811 -0.052454032 -0.73400003
-0.10304154 -0.052454032 -0.73400003
-0.10165498 -0.052454032 -0.73400003
-0.10026841 -0.052454032 -0.73400003
-0.098881841 -0.052454032 -0.73400003
-0.097495273 -0.052454032 -0.73400003
-0.096108712 -0.052454032 -0.73400003
-0.094722144 -0.052454032 -0.73400003
-0.093335576 -0.052454032 -0.73400003
-0.091949008 -0.052454032 -0.73400003
-0.09056244 -0.052454032 -0.73400003
-0.08917588 -0.052454032 -0.73400003
-0.087789312 -0.052454032 -0.73400003
-0.086402744 -0.052454032 -0.73400003
-0.085016176 -0.052454032 -0.73400003
-0.083629616 -0.052454032 -0.73400003
-0.082243048 -0.052454032 -0.73400003
-0.08085648 -0.052454032 -0.73400003
-0.079469912 -0.052454032 -0.73400003
-0.078296103 -0.05259696 -0.736
-0.076905765 -0.05259696 -0.736
-0.075515419 -0.05259696 -0.736
-0.074125074 -0.05259696 -0.736
-0.072833553 -0.052668422 -0.73699999
-0.071635194 -0.052811351 -0.73900002
-0.070429273 -0.052954275 -0.741
-0.06902948 -0.052954275 -0.741
-0.067720957 -0.053025737 -0.74199998
-0.066319279 -0.053025737 -0.74199998
-0.065092586 -0.053168666 -0.74400002
-0.063687131 -0.053168666 -0.74400002
-0.39943483 -0.065321878 -0.89099997
-0.39909095 -0.065541819 -0.89399999
-0.39606854 -0.065321878 -0.89099997
-0.15462503 -0.054398242 -0.74199998
-0.15322335 -0.054398242 -0.74199998
-0.15182167 -0.054398242 -0.74199998
-0.15021728 -0.054324932 -0.741
-0.14881749 -0.054324932 -0.741
-0.14701982 -0.054178309 -0.73900002
-0.1456238 -0.054178309 -0.73900002
-0.14383745 -0.054031678 -0.73699999
-0.14225194 -0.053958368 -0.736
-0.1408616 -0.053958368 -0.736
-0.13947126 -0.053958368 -0.736
-0.13808091 -0.053958368 -0.736
-0.13669057 -0.053958368 -0.736
-0.13530022 -0.053958368 -0.736
-0.13390988 -0.053958368 -0.736
-0.13251953 -0.053958368 -0.736
-0.13112919 -0.053958368 -0.736
-0.12973885 -0.053958368 -0.736
-0.12852289 -0.054031678 -0.73699999
-0.12713066 -0.054031678 -0.73699999
-0.12573843 -0.054031678 -0.73699999
-0.12417747 -0.053958368 -0.736
-0.12278713 -0.053958368 -0.736
-0.12139678 -0.053958368 -0.736
-0.12000643 -0.053958368 -0.736
-0.11861609 -0.053958368 -0.736
-0.11722575 -0.053958368 -0.736
-0.11583541 -0.053958368 -0.736
-0.11444506 -0.053958368 -0.736
-0.11305472 -0.053958368 -0.736
-0.11166437 -0.053958368 -0.736
-0.11027402 -0.053958368 -0.736
-0.10888368 -0.053958368 -0.736
-0.10749333 -0.053958368 -0.736
-0.106103 -0.053958368 -0.736
-0.10471265 -0.053958368 -0.736
-0.1033223 -0.053958368 -0.736
-0.10193196 -0.053958368 -0.736
-0.10054161 -0.053958368 -0.736
-0.099151269 -0.053958368 -0.736
-0.097760923 -0.053958368 -0.736
-0.096370585 -0.053958368 -0.736
-0.09498024 -0.053958368 -0.736
-0.093589894 -0.053958368 -0.736
-0.092199549 -0.053958368 -0.736
-0.090809204 -0.053958368 -0.736
-0.089418858 -0.053958368 -0.736
-0.088028513 -0.053958368 -0.736
-0.086638175 -0.053958368 -0.736
-0.08524783 -0.053958368 -0.736
-0.083857484 -0.053958368 -0.736
-0.082467139 -0.053958368 -0.736
-0.081076793 -0.053958368 -0.736
-0.079686448 -0.053958368 -0.736
-0.078296103 -0.053958368 -0.736
-0.076905765 -0.053958368 -0.736
-0.075515419 -0.053958368 -0.736
-0.074125074 -0.053958368 -0.736
-0.072833553 -0.054031678 -0.73699999
-0.071441315 -0.054031678 -0.73699999
-0.070239179 -0.054178309 -0.73900002
-0.06902948 -0.054324932 -0.741
-0.067629695 -0.054324932 -0.741
-0.066319279 -0.054398242 -0.74199998
-0.064917602 -0.054398242 -0.74199998
-0.063515924 -0.054398242 -0.74199998
-0.062281672 -0.054544874 -0.74400002
-0.3996366 -0.066443861 -0.884
-0.39931726 -0.066669352 -0.88700002
-0.39853826 -0.066819675 -0.889
-0.39775169 -0.066969998 -0.89099997
-0.15462503 -0.055770751 -0.74199998
-0.15322335 -0.055770751 -0.74199998
-0.15182167 -0.055770751 -0.74199998
-0.15042 -0.055770751 -0.74199998
-0.14881749 -0.05569559 -0.741
-0.14741769 -0.05569559 -0.741
-0.14601791 -0.05569559 -0.741
-0.14422779 -0.055545267 -0.73900002
-0.14283179 -0.055545267 -0.73900002
-0.14105299 -0.055394936 -0.73699999
-0.13966076 -0.055394936 -0.73699999
-0.13826852 -0.055394936 -0.73699999
-0.13687629 -0.055394936 -0.73699999
-0.13548405 -0.055394936 -0.73699999
-0.13409182 -0.055394936 -0.73699999
-0.13269959 -0.055394936 -0.73699999
-0.13130735 -0.055394936 -0.73699999
-0.12991512 -0.055394936 -0.73699999
-0.12887166 -0.055545267 -0.73900002
-0.12747565 -0.055545267 -0.73900002
-0.12607965 -0.055545267 -0.73900002
-0.12468363 -0.055545267 -0.73900002
-0.12295395 -0.055394936 -0.73699999
-0.12156172 -0.055394936 -0.73699999
-0.12016948 -0.055394936 -0.73699999
-0.11877725 -0.055394936 -0.73699999
-0.11738502 -0.055394936 -0.73699999
-0.11599278 -0.055394936 -0.73699999
-0.11460055 -0.055394936 -0.73699999
-0.11305472 -0.055319775 -0.736
-0.11166437 -0.055319775 -0.736
-0.11027402 -0.055319775 -0.736
-0.10903162 -0.055394936 -0.73699999
-0.10763939 -0.055394936 -0.73699999
-0.10624715 -0.055394936 -0.73699999
-0.10485492 -0.055394936 -0.73699999
-0.10346269 -0.055394936 -0.73699999
-0.10207045 -0.055394936 -0.73699999
-0.10067822 -0.055394936 -0.73699999
-0.099151269 -0.055319775 -0.736
-0.097760923 -0.055319775 -0.736
-0.096370585 -0.055319775 -0.736
-0.09498024 -0.055319775 -0.736
-0.093589894 -0.055319775 -0.736
-0.092199549 -0.055319775 -0.736
-0.090809204 -0.055319775 -0.736
-0.089418858 -0.055319775 -0.736
-0.088028513 -0.055319775 -0.736
-0.086638175 -0.055319775 -0.736
-0.08524783 -0.055319775 -0.736
-0.083857484 -0.055319775 -0.736
-0.082467139 -0.055319775 -0.736
-0.081076793 -0.055319775 -0.736
-0.079686448 -0.055319775 -0.736
-0.078296103 -0.055319775 -0.736
-0.076905765 -0.055319775 -0.736
-0.075515419 -0.055319775 -0.736
-0.074225783 -0.055394936 -0.73699999
-0.072833553 -0.055394936 -0.73699999
-0.071441315 -0.055394936 -0.73699999
-0.070239179 -0.055545267 -0.73900002
-0.06902948 -0.05569559 -0.741
-0.067629695 -0.05569559 -0.741
-0.066319279 -0.055770751 -0.74199998
-0.064917602 -0.055770751 -0.74199998
-0.063515924 -0.055770751 -0.74199998
-0.062114242 -0.055770751 -0.74199998
-0.3996366 -0.068079032 -0.884
-0.39931726 -0.068310075 -0.88700002
-0.39853826 -0.068464093 -0.889
-0.15644728 -0.057297286 -0.74400002
-0.15504181 -0.057297286 -0.74400002
-0.15322335 -0.05714326 -0.74199998
-0.15182167 -0.05714326 -0.74199998
-0.15042 -0.05714326 -0.74199998
-0.14901832 -0.05714326 -0.74199998
-0.14761664 -0.05714326 -0.74199998
-0.14601791 -0.057066247 -0.741
-0.14461812 -0.057066247 -0.741
-0.14321832 -0.057066247 -0.741
-0.14143577 -0.056912225 -0.73900002
-0.14003976 -0.056912225 -0.73900002
-0.13864374 -0.056912225 -0.73900002
-0.13724774 -0.056912225 -0.73900002
-0.13585173 -0.056912225 -0.73900002
-0.13445571 -0.056912225 -0.73900002
-0.1330597 -0.056912225 -0.73900002
-0.13166369 -0.056912225 -0.73900002
-0.13062023 -0.057066247 -0.741
-0.12922044 -0.057066247 -0.741
-0.12782064 -0.057066247 -0.741
-0.12607965 -0.056912225 -0.73900002
-0.12468363 -0.056912225 -0.73900002
-0.12328762 -0.056912225 -0.73900002
-0.12189161 -0.056912225 -0.73900002
-0.1204956 -0.056912225 -0.73900002
-0.11909959 -0.056912225 -0.73900002
-0.11770357 -0.056912225 -0.73900002
-0.11630756 -0.056912225 -0.73900002
-0.11460055 -0.056758195 -0.73699999
-0.11320832 -0.056758195 -0.73699999
-0.11181609 -0.056758195 -0.73699999
-0.11072352 -0.056912225 -0.73900002
-0.1093275 -0.056912225 -0.73900002
-0.10793149 -0.056912225 -0.73900002
-0.10653548 -0.056912225 -0.73900002
-0.10513947 -0.056912225 -0.73900002
-0.10374346 -0.056912225 -0.73900002
-0.10234745 -0.056912225 -0.73900002
-0.10095143 -0.056912225 -0.73900002
-0.099555425 -0.056912225 -0.73900002
-0.09815941 -0.056912225 -0.73900002
-0.096763402 -0.056912225 -0.73900002
-0.095109284 -0.056758195 -0.73699999
-0.093717054 -0.056758195 -0.73699999
-0.092324816 -0.056758195 -0.73699999
-0.090932585 -0.056758195 -0.73699999
-0.089540355 -0.056758195 -0.73699999
-0.088148117 -0.056758195 -0.73699999
-0.086755887 -0.056758195 -0.73699999
-0.085363649 -0.056758195 -0.73699999
-0.083971418 -0.056758195 -0.73699999
-0.082579188 -0.056758195 -0.73699999
-0.081076793 -0.056681186 -0.736
-0.079686448 -0.056681186 -0.736
-0.078402482 -0.056758195 -0.73699999
-0.077010252 -0.056758195 -0.73699999
-0.075618021 -0.056758195 -0.73699999
-0.074225783 -0.056758195 -0.73699999
-0.072833553 -0.056758195 -0.73699999
-0.071635194 -0.056912225 -0.73900002
-0.070239179 -0.056912225 -0.73900002
-0.068843171 -0.056912225 -0.73900002
-0.067629695 -0.057066247 -0.741
-0.066229902 -0.057066247 -0.741
-0.064917602 -0.05714326 -0.74199998
-0.063515924 -0.05714326 -0.74199998
-0.062030531 -0.057066247 -0.741
-0.060712565 -0.05714326 -0.74199998
-0.3996366 -0.069714203 -0.884
-0.39931726 -0.069950789 -0.88700002
-0.15644728 -0.058673494 -0.74400002
-0.15504181 -0.058673494 -0.74400002
-0.15363637 -0.058673494 -0.74400002
-0.15182167 -0.058515765 -0.74199998
-0.15042 -0.058515765 -0.74199998
-0.14901832 -0.058515765 -0.74199998
-0.14761664 -0.058515765 -0.74199998
-0.14621496 -0.058515765 -0.74199998
-0.14481328 -0.058515765 -0.74199998
-0.14321832 -0.058436904 -0.741
-0.14181854 -0.058436904 -0.741
-0.14041875 -0.058436904 -0.741
-0.13901897 -0.058436904 -0.741
-0.13761917 -0.058436904 -0.741
-0.13621938 -0.058436904 -0.741
-0.1348196 -0.058436904 -0.741
-0.1334198 -0.058436904 -0.741
-0.13202001 -0.058436904 -0.741
-0.13062023 -0.058436904 -0.741
-0.12922044 -0.058436904 -0.741
-0.12782064 -0.058436904 -0.741
-0.12642086 -0.058436904 -0.741
-0.12502107 -0.058436904 -0.741
-0.12362128 -0.058436904 -0.741
-0.12222148 -0.058436904 -0.741
-0.1208217 -0.058436904 -0.741
-0.11942191 -0.058436904 -0.741
-0.11802211 -0.058436904 -0.741
-0.11630756 -0.058279183 -0.73900002
-0.11491155 -0.058279183 -0.73900002
-0.11351554 -0.058279183 -0.73900002
-0.11211953 -0.058279183 -0.73900002
-0.11072352 -0.058279183 -0.73900002
-0.10962338 -0.058436904 -0.741
-0.10822359 -0.058436904 -0.741
-0.1068238 -0.058436904 -0.741
-0.10542401 -0.058436904 -0.741
-0.10402422 -0.058436904 -0.741
-0.10262443 -0.058436904 -0.741
-0.10122464 -0.058436904 -0.741
-0.099555425 -0.058279183 -0.73900002
-0.09815941 -0.058279183 -0.73900002
-0.096763402 -0.058279183 -0.73900002
-0.095367387 -0.058279183 -0.73900002
-0.093971379 -0.058279183 -0.73900002
-0.092575364 -0.058279183 -0.73900002
-0.091179356 -0.058279183 -0.73900002
-0.089783341 -0.058279183 -0.73900002
-0.088387333 -0.058279183 -0.73900002
-0.086991318 -0.058279183 -0.73900002
-0.08559531 -0.058279183 -0.73900002
-0.084199294 -0.058279183 -0.73900002
-0.082579188 -0.058121454 -0.73699999
-0.08118695 -0.058121454 -0.73699999
-0.07979472 -0.058121454 -0.73699999
-0.078402482 -0.058121454 -0.73699999
-0.077010252 -0.058121454 -0.73699999
-0.075618021 -0.058121454 -0.73699999
-0.074427217 -0.058279183 -0.73900002
-0.073031202 -0.058279183 -0.73900002
-0.071635194 -0.058279183 -0.73900002
-0.070239179 -0.058279183 -0.73900002
-0.06902948 -0.058436904 -0.741
-0.067629695 -0.058436904 -0.741
-0.066229902 -0.058436904 -0.741
-0.064917602 -0.058515765 -0.74199998
-0.063430324 -0.058436904 -0.741
-0.062030531 -0.058436904 -0.741
-0.060630742 -0.058436904 -0.741
-0.15665755 -0.06013041 -0.745
-0.15504181 -0.060049698 -0.74400002
-0.15363637 -0.060049698 -0.74400002
-0.1522309 -0.060049698 -0.74400002
-0.15082546 -0.060049698 -0.74400002
-0.14941999 -0.060049698 -0.74400002
-0.14761664 -0.059888273 -0.74199998
-0.14621496 -0.059888273 -0.74199998
-0.14481328 -0.059888273 -0.74199998
-0.14341161 -0.059888273 -0.74199998
-0.14181854 -0.059807561 -0.741
-0.14041875 -0.059807561 -0.741
-0.13920657 -0.059888273 -0.74199998
-0.1378049 -0.059888273 -0.74199998
-0.13640322 -0.059888273 -0.74199998
-0.13500154 -0.059888273 -0.74199998
-0.13359985 -0.059888273 -0.74199998
-0.13219817 -0.059888273 -0.74199998
-0.13079649 -0.059888273 -0.74199998
-0.12939481 -0.059888273 -0.74199998
-0.12799314 -0.059888273 -0.74199998
-0.12659146 -0.059888273 -0.74199998
-0.12518978 -0.059888273 -0.74199998
-0.1237881 -0.059888273 -0.74199998
-0.12222148 -0.059807561 -0.741
-0.1208217 -0.059807561 -0.741
-0.11942191 -0.059807561 -0.741
-0.11802211 -0.059807561 -0.741
-0.11662233 -0.059807561 -0.741
-0.11522254 -0.059807561 -0.741
-0.11382275 -0.059807561 -0.741
-0.11242296 -0.059807561 -0.741
-0.11102317 -0.059807561 -0.741
-0.10962338 -0.059807561 -0.741
-0.10822359 -0.059807561 -0.741
-0.1068238 -0.059807561 -0.741
-0.10542401 -0.059807561 -0.741
-0.10402422 -0.059807561 -0.741
-0.10262443 -0.059807561 -0.741
-0.10122464 -0.059807561 -0.741
-0.099824853 -0.059807561 -0.741
-0.098425061 -0.059807561 -0.741
-0.097025275 -0.059807561 -0.741
-0.095625482 -0.059807561 -0.741
-0.094225697 -0.059807561 -0.741
-0.092825904 -0.059807561 -0.741
-0.091426112 -0.059807561 -0.741
-0.090026326 -0.059807561 -0.741
-0.088387333 -0.059646141 -0.73900002
-0.086991318 -0.059646141 -0.73900002
-0.08559531 -0.059646141 -0.73900002
-0.084199294 -0.059646141 -0.73900002
-0.082803287 -0.059646141 -0.73900002
-0.081407271 -0.059646141 -0.73900002
-0.080011263 -0.059646141 -0.73900002
-0.078615248 -0.059646141 -0.73900002
-0.07721924 -0.059646141 -0.73900002
-0.075823225 -0.059646141 -0.73900002
-0.074427217 -0.059646141 -0.73900002
-0.073031202 -0.059646141 -0.73900002
-0.071829058 -0.059807561 -0.741
-0.070429273 -0.059807561 -0.741
-0.06902948 -0.059807561 -0.741
-0.067629695 -0.059807561 -0.741
-0.066319279 -0.059888273 -0.74199998
-0.064917602 -0.059888273 -0.74199998
-0.063515924 -0.059888273 -0.74199998
-0.062030531 -0.059807561 -0.741
-0.060712565 -0.059888273 -0.74199998
-0.15665755 -0.061508466 -0.745
-0.15525021 -0.061508466 -0.745
-0.15363637 -0.061425906 -0.74400002
-0.1522309 -0.061425906 -0.74400002
-0.15082546 -0.061425906 -0.74400002
-0.14941999 -0.061425906 -0.74400002
-0.14801453 -0.061425906 -0.74400002
