# .PCD v0.7 - Point Cloud Data file format
VERSION 0.7
FIELDS x y z
SIZE 4 4 4
TYPE F F F
COUNT 1 1 1
WIDTH 1345
HEIGHT 1
VIEWPOINT 0 0 0 1 0 0 0
POINTS 1345
DATA ascii
-0.027218234 -0.11583208 -0.676
-0.094469018 -0.11500411 -0.66399997
-0.093074299 -0.11483091 -0.66299999
-0.091683365 -0.11465771 -0.662
-0.090432815 -0.11465771 -0.662
-0.08891283 -0.11431132 -0.66000003
-0.08766605 -0.11431132 -0.66000003
-0.086288333 -0.11413812 -0.65899998
-0.085043445 -0.11413812 -0.65899998
-0.083798558 -0.11413812 -0.65899998
-0.08255367 -0.11413812 -0.65899998
-0.081308782 -0.11413812 -0.65899998
-0.080063894 -0.11413812 -0.65899998
-0.078938618 -0.11431132 -0.66000003
-0.077691846 -0.11431132 -0.66000003
-0.076445065 -0.11431132 -0.66000003
-0.075198293 -0.11431132 -0.66000003
-0.074175604 -0.11465771 -0.662
-0.072925054 -0.11465771 -0.662
-0.071674496 -0.11465771 -0.662
-0.070423946 -0.11465771 -0.662
-0.069173388 -0.11465771 -0.662
-0.067922838 -0.11465771 -0.662
-0.06667228 -0.11465771 -0.662
-0.065421723 -0.11465771 -0.662
-0.064171173 -0.11465771 -0.662
-0.063015662 -0.11483091 -0.66299999
-0.06176322 -0.11483091 -0.66299999
-0.060510777 -0.11483091 -0.66299999
-0.059347712 -0.11500411 -0.66399997
-0.058093376 -0.11500411 -0.66399997
-0.056839045 -0.11500411 -0.66399997
-0.05575214 -0.11535051 -0.66600001
-0.054494031 -0.11535051 -0.66600001
-0.053235918 -0.11535051 -0.66600001
-0.05197781 -0.11535051 -0.66600001
-0.050719697 -0.11535051 -0.66600001
-0.049461588 -0.11535051 -0.66600001
-0.048203476 -0.11535051 -0.66600001
-0.047015853 -0.11552371 -0.667
-0.045755856 -0.11552371 -0.667
-0.044562563 -0.11569691 -0.66799998
-0.043300677 -0.11569691 -0.66799998
-0.042164654 -0.11604331 -0.67000002
-0.040898986 -0.11604331 -0.67000002
-0.039692473 -0.11621651 -0.671
-0.038424917 -0.11621651 -0.671
-0.037157364 -0.11621651 -0.671
-0.035889808 -0.11621651 -0.671
-0.034673847 -0.11638971 -0.67199999
-0.033404402 -0.11638971 -0.67199999
-0.032134958 -0.11638971 -0.67199999
-0.030865513 -0.11638971 -0.67199999
-0.029596068 -0.11638971 -0.67199999
-0.028368777 -0.1165629 -0.67299998
-0.027218234 -0.1170825 -0.676
-0.025979606 -0.1172557 -0.67699999
-0.024773689 -0.1176021 -0.67900002
-0.02359481 -0.11812169 -0.68199998
-0.094326742 -0.11605729 -0.66299999
-0.093074299 -0.11605729 -0.66299999
-0.091683365 -0.11588225 -0.662
-0.090432815 -0.11588225 -0.662
-0.08891283 -0.11553215 -0.66000003
-0.08766605 -0.11553215 -0.66000003
-0.086419277 -0.11553215 -0.66000003
-0.085172497 -0.11553215 -0.66000003
-0.083925724 -0.11553215 -0.66000003
-0.082678944 -0.11553215 -0.66000003
-0.081432171 -0.11553215 -0.66000003
-0.080185391 -0.11553215 -0.66000003
-0.078938618 -0.11553215 -0.66000003
-0.077927269 -0.11588225 -0.662
-0.076676711 -0.11588225 -0.662
-0.075426161 -0.11588225 -0.662
-0.074175604 -0.11588225 -0.662
-0.072925054 -0.11588225 -0.662
-0.071782768 -0.11605729 -0.66299999
-0.070530325 -0.11605729 -0.66299999
-0.069277883 -0.11605729 -0.66299999
-0.068025433 -0.11605729 -0.66299999
-0.06677299 -0.11605729 -0.66299999
-0.065520547 -0.11605729 -0.66299999
-0.064365037 -0.11623234 -0.66399997
-0.063110709 -0.11623234 -0.66399997
-0.061856374 -0.11623234 -0.66399997
-0.060784582 -0.11658244 -0.66600001
-0.059526473 -0.11658244 -0.66600001
-0.058268361 -0.11658244 -0.66600001
-0.057010252 -0.11658244 -0.66600001
-0.05575214 -0.11658244 -0.66600001
-0.054494031 -0.11658244 -0.66600001
-0.053315852 -0.11675749 -0.667
-0.052055851 -0.11675749 -0.667
-0.050795853 -0.11675749 -0.667
-0.049535852 -0.11675749 -0.667
-0.048348229 -0.11693253 -0.66799998
-0.047086343 -0.11693253 -0.66799998
-0.045961656 -0.11728264 -0.67000002
-0.044695988 -0.11728264 -0.67000002
-0.043430321 -0.11728264 -0.67000002
-0.042227585 -0.11745768 -0.671
-0.040960029 -0.11745768 -0.671
-0.039692473 -0.11745768 -0.671
-0.038424917 -0.11745768 -0.671
-0.037212737 -0.11763273 -0.67199999
-0.035943292 -0.11763273 -0.67199999
-0.034673847 -0.11763273 -0.67199999
-0.033404402 -0.11763273 -0.67199999
-0.032134958 -0.11763273 -0.67199999
-0.030865513 -0.11763273 -0.67199999
-0.02964011 -0.11780778 -0.67299998
-0.028453084 -0.11815788 -0.67500001
-0.027218234 -0.11833292 -0.676
-0.025941232 -0.11833292 -0.676
-0.024700718 -0.11850797 -0.67699999
-0.023491021 -0.11885808 -0.67900002
-0.022306474 -0.11938322 -0.68199998
-0.021018138 -0.11938322 -0.68199998
-0.094326742 -0.11728366 -0.66299999
-0.093074299 -0.11728366 -0.66299999
-0.091683365 -0.11710677 -0.662
-0.090432815 -0.11710677 -0.662
-0.089182258 -0.11710677 -0.662
-0.08766605 -0.11675298 -0.66000003
-0.086419277 -0.11675298 -0.66000003
-0.085172497 -0.11675298 -0.66000003
-0.083925724 -0.11675298 -0.66000003
-0.082678944 -0.11675298 -0.66000003
-0.081432171 -0.11675298 -0.66000003
-0.080185391 -0.11675298 -0.66000003
-0.079177827 -0.11710677 -0.662
-0.077927269 -0.11710677 -0.662
-0.076676711 -0.11710677 -0.662
-0.075540096 -0.11728366 -0.66299999
-0.074287653 -0.11728366 -0.66299999
-0.07303521 -0.11728366 -0.66299999
-0.071891032 -0.11746056 -0.66399997
-0.070636705 -0.11746056 -0.66399997
-0.06938237 -0.11746056 -0.66399997
-0.068128034 -0.11746056 -0.66399997
-0.066873707 -0.11746056 -0.66399997
-0.065817021 -0.11781437 -0.66600001
-0.064558916 -0.11781437 -0.66600001
-0.063300803 -0.11781437 -0.66600001
-0.062042691 -0.11781437 -0.66600001
-0.060784582 -0.11781437 -0.66600001
-0.05961585 -0.11799126 -0.667
-0.058355849 -0.11799126 -0.667
-0.057095852 -0.11799126 -0.667
-0.055835851 -0.11799126 -0.667
-0.054575853 -0.11799126 -0.667
-0.053315852 -0.11799126 -0.667
-0.052133895 -0.11816816 -0.66799998
-0.050872006 -0.11816816 -0.66799998
-0.049758654 -0.11852197 -0.67000002
-0.048492987 -0.11852197 -0.67000002
-0.047297809 -0.11869886 -0.671
-0.046030253 -0.11869886 -0.671
-0.044762697 -0.11869886 -0.671
-0.043495141 -0.11869886 -0.671
-0.042290516 -0.11887576 -0.67199999
-0.041021071 -0.11887576 -0.67199999
-0.039751627 -0.11887576 -0.67199999
-0.038482182 -0.11887576 -0.67199999
-0.037268113 -0.11905265 -0.67299998
-0.03599678 -0.11905265 -0.67299998
-0.034725446 -0.11905265 -0.67299998
-0.033454113 -0.11905265 -0.67299998
-0.032278419 -0.11940645 -0.67500001
-0.031003308 -0.11940645 -0.67500001
-0.029728195 -0.11940645 -0.67500001
-0.028495235 -0.11958335 -0.676
-0.027218234 -0.11958335 -0.676
-0.025979606 -0.11976025 -0.67699999
-0.024700718 -0.11976025 -0.67699999
-0.023491021 -0.12011405 -0.67900002
-0.02224106 -0.12029094 -0.68000001
-0.021018138 -0.12064474 -0.68199998
-0.019729804 -0.12064474 -0.68199998
-0.096011676 -0.11904629 -0.66600001
-0.094326742 -0.11851005 -0.66299999
-0.093074299 -0.11851005 -0.66299999
-0.091683365 -0.1183313 -0.662
-0.090432815 -0.1183313 -0.662
-0.089182258 -0.1183313 -0.662
-0.0879317 -0.1183313 -0.662
-0.086419277 -0.1179738 -0.66000003
-0.085172497 -0.1179738 -0.66000003
-0.083925724 -0.1179738 -0.66000003
-0.082929485 -0.1183313 -0.662
-0.081678934 -0.1183313 -0.662
-0.080428377 -0.1183313 -0.662
-0.079177827 -0.1183313 -0.662
-0.078044981 -0.11851005 -0.66299999
-0.076792538 -0.11851005 -0.66299999
-0.07565403 -0.11868879 -0.66399997
-0.074399695 -0.11868879 -0.66399997
-0.073145367 -0.11868879 -0.66399997
-0.071891032 -0.11868879 -0.66399997
-0.070849463 -0.11904629 -0.66600001
-0.069591358 -0.11904629 -0.66600001
-0.068333246 -0.11904629 -0.66600001
-0.067075133 -0.11904629 -0.66600001
-0.065817021 -0.11904629 -0.66600001
-0.064558916 -0.11904629 -0.66600001
-0.06339585 -0.11922504 -0.667
-0.062135849 -0.11922504 -0.667
-0.060875848 -0.11922504 -0.667
-0.05961585 -0.11922504 -0.667
-0.058355849 -0.11922504 -0.667
-0.057181451 -0.11940379 -0.66799998
-0.055919562 -0.11940379 -0.66799998
-0.054657672 -0.11940379 -0.66799998
-0.053555656 -0.11976129 -0.67000002
-0.052289989 -0.11976129 -0.67000002
-0.051024321 -0.11976129 -0.67000002
-0.049832921 -0.11994004 -0.671
-0.048565365 -0.11994004 -0.671
-0.047297809 -0.11994004 -0.671
-0.046098851 -0.12011878 -0.67199999
-0.044829406 -0.12011878 -0.67199999
-0.043559961 -0.12011878 -0.67199999
-0.042290516 -0.12011878 -0.67199999
-0.041082114 -0.12029753 -0.67299998
-0.03981078 -0.12029753 -0.67299998
-0.038539447 -0.12029753 -0.67299998
-0.037378866 -0.12065503 -0.67500001
-0.036103755 -0.12065503 -0.67500001
-0.034828644 -0.12065503 -0.67500001
-0.03355353 -0.12065503 -0.67500001
-0.03232624 -0.12083378 -0.676
-0.031049237 -0.12083378 -0.676
-0.029772237 -0.12083378 -0.676
-0.028495235 -0.12083378 -0.676
-0.027258497 -0.12101252 -0.67699999
-0.025979606 -0.12101252 -0.67699999
-0.024773689 -0.12137002 -0.67900002
-0.023491021 -0.12137002 -0.67900002
-0.02224106 -0.12154877 -0.68000001
-0.021018138 -0.12190626 -0.68199998
-0.019729804 -0.12190626 -0.68199998
-0.018441468 -0.12190626 -0.68199998
-0.095723346 -0.11991702 -0.66399997
-0.094326742 -0.11973643 -0.66299999
-0.093074299 -0.11973643 -0.66299999
-0.091821857 -0.11973643 -0.66299999
-0.090432815 -0.11955583 -0.662
-0.089182258 -0.11955583 -0.662
-0.0879317 -0.11955583 -0.662
-0.08668115 -0.11955583 -0.662
-0.085430592 -0.11955583 -0.662
-0.084180042 -0.11955583 -0.662
-0.082929485 -0.11955583 -0.662
-0.081678934 -0.11955583 -0.662
-0.080549866 -0.11973643 -0.66299999
-0.079297423 -0.11973643 -0.66299999
-0.078162692 -0.11991702 -0.66399997
-0.076908365 -0.11991702 -0.66399997
-0.07565403 -0.11991702 -0.66399997
-0.074623801 -0.12027822 -0.66600001
-0.073365688 -0.12027822 -0.66600001
-0.072107576 -0.12027822 -0.66600001
-0.070849463 -0.12027822 -0.66600001
-0.069591358 -0.12027822 -0.66600001
-0.068333246 -0.12027822 -0.66600001
-0.067075133 -0.12027822 -0.66600001
-0.065915845 -0.12045882 -0.667
-0.064655848 -0.12045882 -0.667
-0.06339585 -0.12045882 -0.667
-0.062229004 -0.12063941 -0.66799998
-0.060967118 -0.12063941 -0.66799998
-0.059705228 -0.12063941 -0.66799998
-0.058443338 -0.12063941 -0.66799998
-0.057352655 -0.12100062 -0.67000002
-0.056086987 -0.12100062 -0.67000002
-0.054903142 -0.12118121 -0.671
-0.053635586 -0.12118121 -0.671
-0.05236803 -0.12118121 -0.671
-0.051100478 -0.12118121 -0.671
-0.049907185 -0.12136181 -0.67199999
-0.04863774 -0.12136181 -0.67199999
-0.047368295 -0.12136181 -0.67199999
-0.046098851 -0.12136181 -0.67199999
-0.044829406 -0.12136181 -0.67199999
-0.043624781 -0.1215424 -0.67299998
-0.042353448 -0.1215424 -0.67299998
-0.041204203 -0.12190361 -0.67500001
-0.039929092 -0.12190361 -0.67500001
-0.038653981 -0.12190361 -0.67500001
-0.037434243 -0.1220842 -0.676
-0.036157243 -0.1220842 -0.676
-0.03488024 -0.1220842 -0.676
-0.03360324 -0.1220842 -0.676
-0.03232624 -0.1220842 -0.676
-0.031049237 -0.1220842 -0.676
-0.029816277 -0.1222648 -0.67699999
-0.028537387 -0.1222648 -0.67699999
-0.027258497 -0.1222648 -0.67699999
-0.026056359 -0.122626 -0.67900002
-0.024773689 -0.122626 -0.67900002
-0.023525618 -0.12280659 -0.68000001
-0.02224106 -0.12280659 -0.68000001
-0.021018138 -0.12316778 -0.68199998
-0.019729804 -0.12316778 -0.68199998
-0.018441468 -0.12316778 -0.68199998
-0.11038635 -0.12351707 -0.67699999
-0.10910746 -0.12351707 -0.67699999
-0.10782857 -0.12351707 -0.67699999
-0.10654968 -0.12351707 -0.67699999
-0.096011676 -0.12151015 -0.66600001
-0.094326742 -0.1209628 -0.66299999
-0.093074299 -0.1209628 -0.66299999
-0.091821857 -0.1209628 -0.66299999
-0.090569414 -0.1209628 -0.66299999
-0.089182258 -0.12078036 -0.662
-0.0879317 -0.12078036 -0.662
-0.08668115 -0.12078036 -0.662
-0.085430592 -0.12078036 -0.662
-0.084180042 -0.12078036 -0.662
-0.082929485 -0.12078036 -0.662
-0.081802309 -0.1209628 -0.66299999
-0.080549866 -0.1209628 -0.66299999
-0.079417028 -0.12114525 -0.66399997
-0.078162692 -0.12114525 -0.66399997
-0.077140018 -0.12151015 -0.66600001
-0.075881906 -0.12151015 -0.66600001
-0.074623801 -0.12151015 -0.66600001
-0.073365688 -0.12151015 -0.66600001
-0.072215848 -0.12169259 -0.667
-0.070955843 -0.12169259 -0.667
-0.069695845 -0.12169259 -0.667
-0.068435848 -0.12169259 -0.667
-0.06717585 -0.12169259 -0.667
-0.06601467 -0.12187504 -0.66799998
-0.06475278 -0.12187504 -0.66799998
-0.063680992 -0.12223994 -0.67000002
-0.06241532 -0.12223994 -0.67000002
-0.061149657 -0.12223994 -0.67000002
-0.059973367 -0.12242238 -0.671
-0.05870581 -0.12242238 -0.671
-0.057438254 -0.12242238 -0.671
-0.056170698 -0.12242238 -0.671
-0.054903142 -0.12242238 -0.671
-0.053635586 -0.12242238 -0.671
-0.052446075 -0.12260483 -0.67199999
-0.05117663 -0.12260483 -0.67199999
-0.049907185 -0.12260483 -0.67199999
-0.04863774 -0.12260483 -0.67199999
-0.047438785 -0.12278727 -0.67299998
-0.046167452 -0.12278727 -0.67299998
-0.04502954 -0.12315217 -0.67500001
-0.043754429 -0.12315217 -0.67500001
-0.042479314 -0.12315217 -0.67500001
-0.041265246 -0.12333462 -0.676
-0.039988246 -0.12333462 -0.676
-0.038711242 -0.12333462 -0.676
-0.037434243 -0.12333462 -0.676
-0.036210727 -0.12351707 -0.67699999
-0.034931839 -0.12351707 -0.67699999
-0.033652946 -0.12351707 -0.67699999
-0.032374058 -0.12351707 -0.67699999
-0.031095168 -0.12351707 -0.67699999
-0.029816277 -0.12351707 -0.67699999
-0.028537387 -0.12351707 -0.67699999
-0.027339026 -0.12388197 -0.67900002
-0.026056359 -0.12388197 -0.67900002
-0.024810174 -0.12406442 -0.68000001
-0.023525618 -0.12406442 -0.68000001
-0.022306474 -0.12442931 -0.68199998
-0.021018138 -0.12442931 -0.68199998
-0.019729804 -0.12442931 -0.68199998
-0.018441468 -0.12442931 -0.68199998
-0.017178286 -0.12461177 -0.68300003
-0.11166524 -0.12476934 -0.67699999
-0.11038635 -0.12476934 -0.67699999
-0.10910746 -0.12476934 -0.67699999
-0.10782857 -0.12476934 -0.67699999
-0.10654968 -0.12476934 -0.67699999
-0.1052708 -0.12476934 -0.67699999
-0.096011676 -0.12274207 -0.66600001
-0.094469018 -0.12237348 -0.66399997
-0.093074299 -0.12218918 -0.66299999
-0.091821857 -0.12218918 -0.66299999
-0.090569414 -0.12218918 -0.66299999
-0.089316972 -0.12218918 -0.66299999
-0.088064529 -0.12218918 -0.66299999
-0.086812086 -0.12218918 -0.66299999
-0.085559644 -0.12218918 -0.66299999
-0.084307201 -0.12218918 -0.66299999
-0.083180025 -0.12237348 -0.66399997
-0.08192569 -0.12237348 -0.66399997
-0.080914348 -0.12274207 -0.66600001
-0.079656243 -0.12274207 -0.66600001
-0.078398131 -0.12274207 -0.66600001
-0.077140018 -0.12274207 -0.66600001
-0.07599584 -0.12292637 -0.667
-0.074735843 -0.12292637 -0.667
-0.073475845 -0.12292637 -0.667
-0.072215848 -0.12292637 -0.667
-0.070955843 -0.12292637 -0.667
-0.069695845 -0.12292637 -0.667
-0.06853845 -0.12311067 -0.66799998
-0.06727656 -0.12311067 -0.66799998
-0.066212319 -0.12347927 -0.67000002
-0.065043591 -0.12366356 -0.671
-0.063776031 -0.12366356 -0.671
-0.062508479 -0.12366356 -0.671
-0.061240923 -0.12366356 -0.671
-0.059973367 -0.12366356 -0.671
-0.05870581 -0.12366356 -0.671
-0.057523854 -0.12384786 -0.67199999
-0.056254409 -0.12384786 -0.67199999
-0.054984964 -0.12384786 -0.67199999
-0.05371552 -0.12384786 -0.67199999
-0.05252412 -0.12403215 -0.67299998
-0.051252786 -0.12403215 -0.67299998
-0.049981453 -0.12403215 -0.67299998
-0.048854876 -0.12440075 -0.67500001
-0.047579762 -0.12440075 -0.67500001
-0.046304651 -0.12440075 -0.67500001
-0.045096248 -0.12458505 -0.676
-0.043819249 -0.12458505 -0.676
-0.042542245 -0.12458505 -0.676
-0.041265246 -0.12458505 -0.676
-0.039988246 -0.12458505 -0.676
-0.038768508 -0.12476934 -0.67699999
-0.037489619 -0.12476934 -0.67699999
-0.036210727 -0.12476934 -0.67699999
-0.034931839 -0.12476934 -0.67699999
-0.033652946 -0.12476934 -0.67699999
-0.032469697 -0.12513794 -0.67900002
-0.031187031 -0.12513794 -0.67900002
-0.029904362 -0.12513794 -0.67900002
-0.028621694 -0.12513794 -0.67900002
-0.027339026 -0.12513794 -0.67900002
-0.026094731 -0.12532224 -0.68000001
-0.024810174 -0.12532224 -0.68000001
-0.02359481 -0.12569083 -0.68199998
-0.022306474 -0.12569083 -0.68199998
-0.021018138 -0.12569083 -0.68199998
-0.019729804 -0.12569083 -0.68199998
-0.018441468 -0.12569083 -0.68199998
-0.017178286 -0.12587513 -0.68300003
-0.015888061 -0.12587513 -0.68300003
-0.11166524 -0.12602162 -0.67699999
-0.11038635 -0.12602162 -0.67699999
-0.10910746 -0.12602162 -0.67699999
-0.10782857 -0.12602162 -0.67699999
-0.1063923 -0.12583548 -0.676
-0.1052708 -0.12602162 -0.67699999
-0.1039919 -0.12602162 -0.67699999
-0.096011676 -0.123974 -0.66600001
-0.094753563 -0.123974 -0.66600001
-0.093214683 -0.1236017 -0.66399997
-0.091960348 -0.1236017 -0.66399997
-0.090706021 -0.1236017 -0.66399997
-0.089316972 -0.12341556 -0.66299999
-0.088064529 -0.12341556 -0.66299999
-0.086812086 -0.12341556 -0.66299999
-0.085559644 -0.12341556 -0.66299999
-0.08443436 -0.1236017 -0.66399997
-0.083430573 -0.123974 -0.66600001
-0.082172461 -0.123974 -0.66600001
-0.080914348 -0.123974 -0.66600001
-0.079656243 -0.123974 -0.66600001
-0.078515843 -0.12416015 -0.667
-0.077255845 -0.12416015 -0.667
-0.076109782 -0.12434629 -0.66799998
-0.074847892 -0.12434629 -0.66799998
-0.073586002 -0.12434629 -0.66799998
-0.072324112 -0.12434629 -0.66799998
-0.071062222 -0.12434629 -0.66799998
-0.070009321 -0.12471859 -0.67000002
-0.068743654 -0.12471859 -0.67000002
-0.067477986 -0.12471859 -0.67000002
-0.066311143 -0.12490474 -0.671
-0.065043591 -0.12490474 -0.671
-0.063776031 -0.12490474 -0.671
-0.062601633 -0.12509088 -0.67199999
-0.061332189 -0.12509088 -0.67199999
-0.060062744 -0.12509088 -0.67199999
-0.058793299 -0.12509088 -0.67199999
-0.057523854 -0.12509088 -0.67199999
-0.05633812 -0.12527703 -0.67299998
-0.055066787 -0.12527703 -0.67299998
-0.053795453 -0.12527703 -0.67299998
-0.052680213 -0.12564933 -0.67500001
-0.051405098 -0.12564933 -0.67500001
-0.050129987 -0.12564933 -0.67500001
-0.048927251 -0.12583548 -0.676
-0.047650252 -0.12583548 -0.676
-0.046373248 -0.12583548 -0.676
-0.045096248 -0.12583548 -0.676
-0.043884069 -0.12602162 -0.67699999
-0.042605177 -0.12602162 -0.67699999
-0.041326288 -0.12602162 -0.67699999
-0.0400474 -0.12602162 -0.67699999
-0.038768508 -0.12602162 -0.67699999
-0.037600372 -0.12639391 -0.67900002
-0.036317702 -0.12639391 -0.67900002
-0.035035037 -0.12639391 -0.67900002
-0.033752367 -0.12639391 -0.67900002
-0.032469697 -0.12639391 -0.67900002
-0.031187031 -0.12639391 -0.67900002
-0.029904362 -0.12639391 -0.67900002
-0.028663846 -0.12658006 -0.68000001
-0.027379289 -0.12658006 -0.68000001
-0.026171479 -0.12695235 -0.68199998
-0.024883145 -0.12695235 -0.68199998
-0.02359481 -0.12695235 -0.68199998
-0.022306474 -0.12695235 -0.68199998
-0.021018138 -0.12695235 -0.68199998
-0.019729804 -0.12695235 -0.68199998
-0.01846851 -0.12713851 -0.68300003
-0.017178286 -0.12713851 -0.68300003
-0.015911322 -0.12732466 -0.68400002
-0.11394512 -0.12840188 -0.68300003
-0.11166524 -0.12727389 -0.67699999
-0.11038635 -0.12727389 -0.67699999
-0.10910746 -0.12727389 -0.67699999
-0.10782857 -0.12727389 -0.67699999
-0.1063923 -0.12708589 -0.676
-0.1051153 -0.12708589 -0.676
-0.10383829 -0.12708589 -0.676
-0.1025613 -0.12708589 -0.676
-0.097561888 -0.12558192 -0.66799998
-0.096155837 -0.12539393 -0.667
-0.094753563 -0.12520593 -0.66600001
-0.093495458 -0.12520593 -0.66600001
-0.091960348 -0.12482993 -0.66399997
-0.090706021 -0.12482993 -0.66399997
-0.089451686 -0.12482993 -0.66399997
-0.088197358 -0.12482993 -0.66399997
-0.086943023 -0.12482993 -0.66399997
-0.085688688 -0.12482993 -0.66399997
-0.084688678 -0.12520593 -0.66600001
-0.083430573 -0.12520593 -0.66600001
-0.082295842 -0.12539393 -0.667
-0.081035845 -0.12539393 -0.667
-0.07977584 -0.12539393 -0.667
-0.078633554 -0.12558192 -0.66799998
-0.077371664 -0.12558192 -0.66799998
-0.076337658 -0.12595792 -0.67000002
-0.07507199 -0.12595792 -0.67000002
-0.073806323 -0.12595792 -0.67000002
-0.072540656 -0.12595792 -0.67000002
-0.071274988 -0.12595792 -0.67000002
-0.070113815 -0.12614591 -0.671
-0.068846256 -0.12614591 -0.671
-0.067578703 -0.12614591 -0.671
-0.066409968 -0.12633391 -0.67199999
-0.065140523 -0.12633391 -0.67199999
-0.063871078 -0.12633391 -0.67199999
-0.062601633 -0.12633391 -0.67199999
-0.061423454 -0.1265219 -0.67299998
-0.060152121 -0.1265219 -0.67299998
-0.058880787 -0.1265219 -0.67299998
-0.057609454 -0.1265219 -0.67299998
-0.056505546 -0.1268979 -0.67500001
-0.055230435 -0.1268979 -0.67500001
-0.054035258 -0.12708589 -0.676
-0.052758254 -0.12708589 -0.676
-0.051481254 -0.12708589 -0.676
-0.050204255 -0.12708589 -0.676
-0.048927251 -0.12708589 -0.676
-0.047720738 -0.12727389 -0.67699999
-0.046441849 -0.12727389 -0.67699999
-0.045162957 -0.12727389 -0.67699999
-0.043884069 -0.12727389 -0.67699999
-0.042605177 -0.12727389 -0.67699999
-0.041448377 -0.12764989 -0.67900002
-0.040165707 -0.12764989 -0.67900002
-0.038883042 -0.12764989 -0.67900002
-0.037655748 -0.12783788 -0.68000001
-0.03637119 -0.12783788 -0.68000001
-0.035086632 -0.12783788 -0.68000001
-0.033802077 -0.12783788 -0.68000001
-0.032517519 -0.12783788 -0.68000001
-0.031232961 -0.12783788 -0.68000001
-0.029948404 -0.12783788 -0.68000001
-0.028663846 -0.12783788 -0.68000001
-0.027459815 -0.12821387 -0.68199998
-0.026171479 -0.12821387 -0.68199998
-0.024883145 -0.12821387 -0.68199998
-0.02359481 -0.12821387 -0.68199998
-0.022306474 -0.12821387 -0.68199998
-0.021048959 -0.12840188 -0.68300003
-0.019758735 -0.12840188 -0.68300003
-0.01846851 -0.12840188 -0.68300003
-0.017178286 -0.12840188 -0.68300003
-0.015911322 -0.12858987 -0.68400002
-0.11166524 -0.12852617 -0.67699999
-0.11038635 -0.12852617 -0.67699999
-0.10910746 -0.12852617 -0.67699999
-0.10782857 -0.12852617 -0.67699999
-0.1063923 -0.12833633 -0.676
-0.1051153 -0.12833633 -0.676
-0.10383829 -0.12833633 -0.676
-0.10240958 -0.12814647 -0.67500001
-0.10113447 -0.12814647 -0.67500001
-0.099267595 -0.12738709 -0.671
-0.097561888 -0.12681754 -0.66799998
-0.096155837 -0.1266277 -0.667
-0.09489584 -0.1266277 -0.667
-0.093495458 -0.12643786 -0.66600001
-0.092237346 -0.12643786 -0.66600001
-0.090979233 -0.12643786 -0.66600001
-0.089721121 -0.12643786 -0.66600001
-0.088463016 -0.12643786 -0.66600001
-0.087204903 -0.12643786 -0.66600001
-0.085946791 -0.12643786 -0.66600001
-0.084815837 -0.1266277 -0.667
-0.08355584 -0.1266277 -0.667
-0.082419224 -0.12681754 -0.66799998
-0.081157334 -0.12681754 -0.66799998
-0.079895444 -0.12681754 -0.66799998
-0.078868993 -0.12719725 -0.67000002
-0.077603325 -0.12719725 -0.67000002
-0.076451592 -0.12738709 -0.671
-0.075184032 -0.12738709 -0.671
-0.07391648 -0.12738709 -0.671
-0.072648928 -0.12738709 -0.671
-0.071381368 -0.12738709 -0.671
-0.070113815 -0.12738709 -0.671
-0.068948857 -0.12757693 -0.67199999
-0.067679413 -0.12757693 -0.67199999
-0.066409968 -0.12757693 -0.67199999
-0.065140523 -0.12757693 -0.67199999
-0.063966125 -0.12776677 -0.67299998
-0.062694788 -0.12776677 -0.67299998
-0.061423454 -0.12776677 -0.67299998
-0.060330883 -0.12814647 -0.67500001
-0.059055772 -0.12814647 -0.67500001
-0.057780661 -0.12814647 -0.67500001
-0.056589257 -0.12833633 -0.676
-0.055312257 -0.12833633 -0.676
-0.054035258 -0.12833633 -0.676
-0.052758254 -0.12833633 -0.676
-0.051557411 -0.12852617 -0.67699999
-0.050278518 -0.12852617 -0.67699999
-0.04899963 -0.12852617 -0.67699999
-0.047720738 -0.12852617 -0.67699999
-0.046441849 -0.12852617 -0.67699999
-0.045162957 -0.12852617 -0.67699999
-0.044013713 -0.12890586 -0.67900002
-0.042731047 -0.12890586 -0.67900002
-0.041448377 -0.12890586 -0.67900002
-0.040224861 -0.1290957 -0.68000001
-0.038940303 -0.1290957 -0.68000001
-0.037655748 -0.1290957 -0.68000001
-0.036478162 -0.1294754 -0.68199998
-0.035189826 -0.1294754 -0.68199998
-0.033901494 -0.1294754 -0.68199998
-0.032613158 -0.1294754 -0.68199998
-0.031324822 -0.1294754 -0.68199998
-0.030036487 -0.1294754 -0.68199998
-0.028748151 -0.1294754 -0.68199998
-0.027459815 -0.1294754 -0.68199998
-0.026171479 -0.1294754 -0.68199998
-0.024883145 -0.1294754 -0.68199998
-0.023629408 -0.12966526 -0.68300003
-0.022339184 -0.12966526 -0.68300003
-0.021048959 -0.12966526 -0.68300003
-0.019758735 -0.12966526 -0.68300003
-0.018495549 -0.1298551 -0.68400002
-0.017203435 -0.1298551 -0.68400002
-0.015911322 -0.1298551 -0.68400002
-0.014661955 -0.13023478 -0.68599999
-0.11265489 -0.13092862 -0.68300003
-0.11038635 -0.12977844 -0.67699999
-0.1089463 -0.12958674 -0.676
-0.1076693 -0.12958674 -0.676
-0.1063923 -0.12958674 -0.676
-0.1051153 -0.12958674 -0.676
-0.10368469 -0.12939505 -0.67500001
-0.10195442 -0.12881996 -0.67199999
-0.10068498 -0.12881996 -0.67199999
-0.099119656 -0.12843657 -0.67000002
-0.097561888 -0.12805317 -0.66799998
-0.096299998 -0.12805317 -0.66799998
-0.09489584 -0.12786147 -0.667
-0.093635835 -0.12786147 -0.667
-0.092237346 -0.12766978 -0.66600001
-0.090979233 -0.12766978 -0.66600001
-0.089721121 -0.12766978 -0.66600001
-0.088463016 -0.12766978 -0.66600001
-0.08733584 -0.12786147 -0.667
-0.086075842 -0.12786147 -0.667
-0.084942997 -0.12805317 -0.66799998
-0.083681114 -0.12805317 -0.66799998
-0.082665987 -0.12843657 -0.67000002
-0.08140032 -0.12843657 -0.67000002
-0.08013466 -0.12843657 -0.67000002
-0.078986704 -0.12862827 -0.671
-0.077719145 -0.12862827 -0.671
-0.076451592 -0.12862827 -0.671
-0.075184032 -0.12862827 -0.671
-0.07391648 -0.12862827 -0.671
-0.072648928 -0.12862827 -0.671
-0.071487747 -0.12881996 -0.67199999
-0.070218302 -0.12881996 -0.67199999
-0.068948857 -0.12881996 -0.67199999
-0.067679413 -0.12881996 -0.67199999
-0.066508792 -0.12901165 -0.67299998
-0.065237455 -0.12901165 -0.67299998
-0.064156219 -0.12939505 -0.67500001
-0.062881105 -0.12939505 -0.67500001
-0.061605997 -0.12939505 -0.67500001
-0.060330883 -0.12939505 -0.67500001
-0.05914326 -0.12958674 -0.676
-0.05786626 -0.12958674 -0.676
-0.056589257 -0.12958674 -0.676
-0.055312257 -0.12958674 -0.676
-0.054115187 -0.12977844 -0.67699999
-0.052836299 -0.12977844 -0.67699999
-0.051557411 -0.12977844 -0.67699999
-0.050278518 -0.12977844 -0.67699999
-0.04899963 -0.12977844 -0.67699999
-0.047861718 -0.13016184 -0.67900002
-0.046579048 -0.13016184 -0.67900002
-0.045296382 -0.13016184 -0.67900002
-0.044013713 -0.13016184 -0.67900002
-0.042793978 -0.13035353 -0.68000001
-0.04150942 -0.13035353 -0.68000001
-0.040224861 -0.13035353 -0.68000001
-0.039054833 -0.13073692 -0.68199998
-0.037766498 -0.13073692 -0.68199998
-0.036478162 -0.13073692 -0.68199998
-0.035189826 -0.13073692 -0.68199998
-0.033901494 -0.13073692 -0.68199998
-0.032613158 -0.13073692 -0.68199998
-0.031324822 -0.13073692 -0.68199998
-0.030036487 -0.13073692 -0.68199998
-0.028748151 -0.13073692 -0.68199998
-0.027500082 -0.13092862 -0.68300003
-0.026209857 -0.13092862 -0.68300003
-0.024919633 -0.13092862 -0.68300003
-0.023629408 -0.13092862 -0.68300003
-0.02237189 -0.13112032 -0.68400002
-0.021079777 -0.13112032 -0.68400002
-0.019787664 -0.13112032 -0.68400002
-0.018495549 -0.13112032 -0.68400002
-0.017203435 -0.13112032 -0.68400002
-0.015911322 -0.13112032 -0.68400002
-0.014661955 -0.1315037 -0.68599999
-0.1102233 -0.13083717 -0.676
-0.1089463 -0.13083717 -0.676
-0.10751003 -0.13064362 -0.67500001
-0.10623492 -0.13064362 -0.67500001
-0.1049598 -0.13064362 -0.67500001
-0.10322387 -0.13006298 -0.67199999
-0.10195442 -0.13006298 -0.67199999
-0.10053515 -0.12986945 -0.671
-0.099119656 -0.12967589 -0.67000002
-0.097853988 -0.12967589 -0.67000002
-0.096299998 -0.12928879 -0.66799998
-0.095038109 -0.12928879 -0.66799998
-0.093776219 -0.12928879 -0.66799998
-0.092375837 -0.12909526 -0.667
-0.09111584 -0.12909526 -0.667
-0.089855842 -0.12909526 -0.667
-0.088595837 -0.12909526 -0.667
-0.087466776 -0.12928879 -0.66799998
-0.086204886 -0.12928879 -0.66799998
-0.085197322 -0.12967589 -0.67000002
-0.083931655 -0.12967589 -0.67000002
-0.082789369 -0.12986945 -0.671
-0.081521817 -0.12986945 -0.671
-0.080254257 -0.12986945 -0.671
-0.078986704 -0.12986945 -0.671
-0.077719145 -0.12986945 -0.671
-0.076565526 -0.13006298 -0.67199999
-0.075296082 -0.13006298 -0.67199999
-0.074026637 -0.13006298 -0.67199999
-0.072757192 -0.13006298 -0.67199999
-0.071487747 -0.13006298 -0.67199999
-0.070218302 -0.13006298 -0.67199999
-0.069051459 -0.13025653 -0.67299998
-0.067780122 -0.13025653 -0.67299998
-0.066508792 -0.13025653 -0.67299998
-0.065431334 -0.13064362 -0.67500001
-0.064156219 -0.13064362 -0.67500001
-0.062974267 -0.13083717 -0.676
-0.061697263 -0.13083717 -0.676
-0.06042026 -0.13083717 -0.676
-0.05914326 -0.13083717 -0.676
-0.05786626 -0.13083717 -0.676
-0.056672968 -0.13103071 -0.67699999
-0.05539408 -0.13103071 -0.67699999
-0.054115187 -0.13103071 -0.67699999
-0.052992392 -0.13141781 -0.67900002
-0.051709723 -0.13141781 -0.67900002
-0.050427053 -0.13141781 -0.67900002
-0.049144387 -0.13141781 -0.67900002
-0.047932204 -0.13161136 -0.68000001
-0.046647649 -0.13161136 -0.68000001
-0.045363091 -0.13161136 -0.68000001
-0.044078533 -0.13161136 -0.68000001
-0.042919841 -0.13199845 -0.68199998
-0.041631505 -0.13199845 -0.68199998
-0.040343169 -0.13199845 -0.68199998
-0.039054833 -0.13199845 -0.68199998
-0.037766498 -0.13199845 -0.68199998
-0.036531653 -0.132192 -0.68300003
-0.035241429 -0.132192 -0.68300003
-0.033951204 -0.132192 -0.68300003
-0.03266098 -0.132192 -0.68300003
-0.031370755 -0.132192 -0.68300003
-0.030080531 -0.132192 -0.68300003
-0.028790306 -0.132192 -0.68300003
-0.027500082 -0.132192 -0.68300003
-0.02624823 -0.13238554 -0.68400002
-0.024956116 -0.13238554 -0.68400002
-0.023733195 -0.13277262 -0.68599999
-0.022437304 -0.13277262 -0.68599999
-0.021141412 -0.13277262 -0.68599999
-0.019845521 -0.13277262 -0.68599999
-0.018549629 -0.13277262 -0.68599999
-0.017253738 -0.13277262 -0.68599999
-0.015957845 -0.13277262 -0.68599999
-0.014683328 -0.13296618 -0.68699998
-0.10878514 -0.1318922 -0.67500001
-0.10751003 -0.1318922 -0.67500001
-0.10623492 -0.1318922 -0.67500001
-0.10464881 -0.13150141 -0.67299998
-0.10322387 -0.13130601 -0.67199999
-0.10180271 -0.13111061 -0.671
-0.10053515 -0.13111061 -0.671
-0.099267595 -0.13111061 -0.671
-0.097853988 -0.13091522 -0.67000002
-0.096588321 -0.13091522 -0.67000002
-0.095322661 -0.13091522 -0.67000002
-0.094056994 -0.13091522 -0.67000002
-0.092514329 -0.13052443 -0.66799998
-0.091252439 -0.13052443 -0.66799998
-0.089990556 -0.13052443 -0.66799998
-0.088994324 -0.13091522 -0.67000002
-0.087728657 -0.13091522 -0.67000002
-0.086592041 -0.13111061 -0.671
-0.085324481 -0.13111061 -0.671
-0.084056929 -0.13111061 -0.671
-0.082789369 -0.13111061 -0.671
-0.081521817 -0.13111061 -0.671
-0.080254257 -0.13111061 -0.671
-0.078986704 -0.13111061 -0.671
-0.077834971 -0.13130601 -0.67199999
-0.076565526 -0.13130601 -0.67199999
-0.075296082 -0.13130601 -0.67199999
-0.074026637 -0.13130601 -0.67199999
-0.072757192 -0.13130601 -0.67199999
-0.071594127 -0.13150141 -0.67299998
-0.070322797 -0.13150141 -0.67299998
-0.069051459 -0.13150141 -0.67299998
-0.067981556 -0.1318922 -0.67500001
-0.066706441 -0.1318922 -0.67500001
-0.065431334 -0.1318922 -0.67500001
-0.064251266 -0.13208759 -0.676
-0.062974267 -0.13208759 -0.676
-0.061697263 -0.13208759 -0.676
-0.06042026 -0.13208759 -0.676
-0.059230749 -0.13228299 -0.67699999
-0.05795186 -0.13228299 -0.67699999
-0.056672968 -0.13228299 -0.67699999
-0.055557728 -0.13267379 -0.67900002
-0.054275058 -0.13267379 -0.67900002
-0.053070433 -0.13286918 -0.68000001
-0.051785879 -0.13286918 -0.68000001
-0.050501321 -0.13286918 -0.68000001
-0.049361516 -0.13325997 -0.68199998
-0.04807318 -0.13325997 -0.68199998
-0.046784844 -0.13325997 -0.68199998
-0.045496508 -0.13325997 -0.68199998
-0.044208176 -0.13325997 -0.68199998
-0.042919841 -0.13325997 -0.68199998
-0.041631505 -0.13325997 -0.68199998
-0.040343169 -0.13325997 -0.68199998
-0.039112102 -0.13345537 -0.68300003
-0.037821878 -0.13345537 -0.68300003
-0.036531653 -0.13345537 -0.68300003
-0.035293024 -0.13365076 -0.68400002
-0.034000911 -0.13365076 -0.68400002
-0.032708798 -0.13365076 -0.68400002
-0.031416684 -0.13365076 -0.68400002
-0.030124571 -0.13365076 -0.68400002
-0.028832458 -0.13365076 -0.68400002
-0.027540345 -0.13365076 -0.68400002
-0.026324978 -0.13404155 -0.68599999
-0.025029087 -0.13404155 -0.68599999
-0.023767792 -0.13423695 -0.68699998
-0.02247001 -0.13423695 -0.68699998
-0.021172231 -0.13423695 -0.68699998
-0.01987445 -0.13423695 -0.68699998
-0.018576669 -0.13423695 -0.68699998
-0.017278889 -0.13423695 -0.68699998
-0.015981108 -0.13423695 -0.68699998
-0.10878514 -0.13314077 -0.67500001
-0.10719147 -0.13274628 -0.67299998
-0.10592014 -0.13274628 -0.67299998
-0.10464881 -0.13274628 -0.67299998
-0.10322387 -0.13254903 -0.67199999
-0.10180271 -0.13235179 -0.671
-0.10053515 -0.13235179 -0.671
-0.099267595 -0.13235179 -0.671
-0.098000042 -0.13235179 -0.671
-0.096732482 -0.13235179 -0.671
-0.09546493 -0.13235179 -0.671
-0.094056994 -0.13215455 -0.67000002
-0.092791326 -0.13215455 -0.67000002
-0.091525659 -0.13215455 -0.67000002
-0.090259992 -0.13215455 -0.67000002
-0.089127153 -0.13235179 -0.671
-0.087859593 -0.13235179 -0.671
-0.086592041 -0.13235179 -0.671
-0.085324481 -0.13235179 -0.671
-0.084182195 -0.13254903 -0.67199999
-0.082912751 -0.13254903 -0.67199999
-0.081643306 -0.13254903 -0.67199999
-0.080373861 -0.13254903 -0.67199999
-0.079104416 -0.13254903 -0.67199999
-0.077834971 -0.13254903 -0.67199999
-0.076565526 -0.13254903 -0.67199999
-0.075296082 -0.13254903 -0.67199999
-0.074136794 -0.13274628 -0.67299998
-0.072865464 -0.13274628 -0.67299998
-0.071806893 -0.13314077 -0.67500001
-0.070531778 -0.13314077 -0.67500001
-0.069256671 -0.13314077 -0.67500001
-0.067981556 -0.13314077 -0.67500001
-0.066805266 -0.13333802 -0.676
-0.065528266 -0.13333802 -0.676
-0.064251266 -0.13333802 -0.676
-0.062974267 -0.13333802 -0.676
-0.061788529 -0.13353527 -0.67699999
-0.060509641 -0.13353527 -0.67699999
-0.059230749 -0.13353527 -0.67699999
-0.058123063 -0.13392976 -0.67900002
-0.056840397 -0.13392976 -0.67900002
-0.05563955 -0.13412701 -0.68000001
-0.054354992 -0.13412701 -0.68000001
-0.053226523 -0.13452148 -0.68199998
-0.051938187 -0.13452148 -0.68199998
-0.050649852 -0.13452148 -0.68199998
-0.049361516 -0.13452148 -0.68199998
-0.04807318 -0.13452148 -0.68199998
-0.046784844 -0.13452148 -0.68199998
-0.045496508 -0.13452148 -0.68199998
-0.044208176 -0.13452148 -0.68199998
-0.042982776 -0.13471875 -0.68300003
-0.041692551 -0.13471875 -0.68300003
-0.040402327 -0.13471875 -0.68300003
-0.039169367 -0.13491599 -0.68400002
-0.03787725 -0.13491599 -0.68400002
-0.036585137 -0.13491599 -0.68400002
-0.035396218 -0.13531047 -0.68599999
-0.034100328 -0.13531047 -0.68599999
-0.032804437 -0.13531047 -0.68599999
-0.031508546 -0.13531047 -0.68599999
-0.030212654 -0.13531047 -0.68599999
-0.028916761 -0.13531047 -0.68599999
-0.027620871 -0.13531047 -0.68599999
-0.026363352 -0.13550772 -0.68699998
-0.025065573 -0.13550772 -0.68699998
-0.023767792 -0.13550772 -0.68699998
-0.02250272 -0.13570496 -0.68800002
-0.02120305 -0.13570496 -0.68800002
-0.01990338 -0.13570496 -0.68800002
-0.01860371 -0.13570496 -0.68800002
-0.01730404 -0.13570496 -0.68800002
-0.016050896 -0.13609946 -0.69
-0.10973414 -0.13399115 -0.67299998
-0.10846281 -0.13399115 -0.67299998
-0.10719147 -0.13399115 -0.67299998
-0.10592014 -0.13399115 -0.67299998
-0.10449331 -0.13379206 -0.67199999
-0.10322387 -0.13379206 -0.67199999
-0.10180271 -0.13359296 -0.671
-0.10053515 -0.13359296 -0.671
-0.099267595 -0.13359296 -0.671
-0.098000042 -0.13359296 -0.671
-0.096732482 -0.13359296 -0.671
-0.09546493 -0.13359296 -0.671
-0.09419737 -0.13359296 -0.671
-0.092929818 -0.13359296 -0.671
-0.091662258 -0.13359296 -0.671
-0.090394706 -0.13359296 -0.671
-0.089127153 -0.13359296 -0.671
-0.08799053 -0.13379206 -0.67199999
-0.086721085 -0.13379206 -0.67199999
-0.08545164 -0.13379206 -0.67199999
-0.084182195 -0.13379206 -0.67199999
-0.082912751 -0.13379206 -0.67199999
-0.081764795 -0.13399115 -0.67299998
-0.080493465 -0.13399115 -0.67299998
-0.079222128 -0.13399115 -0.67299998
-0.077950798 -0.13399115 -0.67299998
-0.076907337 -0.13438936 -0.67500001
-0.075632229 -0.13438936 -0.67500001
-0.074357115 -0.13438936 -0.67500001
-0.073082007 -0.13438936 -0.67500001
-0.071913272 -0.13458844 -0.676
-0.070636272 -0.13458844 -0.676
-0.069359265 -0.13458844 -0.676
-0.068082266 -0.13458844 -0.676
-0.066805266 -0.13458844 -0.676
-0.065528266 -0.13458844 -0.676
-0.064346306 -0.13478753 -0.67699999
-0.063067421 -0.13478753 -0.67699999
-0.061788529 -0.13478753 -0.67699999
-0.060509641 -0.13478753 -0.67699999
-0.059405733 -0.13518573 -0.67900002
-0.058208663 -0.13538483 -0.68000001
-0.056924108 -0.13538483 -0.68000001
-0.05563955 -0.13538483 -0.68000001
-0.054514859 -0.13578302 -0.68199998
-0.053226523 -0.13578302 -0.68199998
-0.051938187 -0.13578302 -0.68199998
-0.050649852 -0.13578302 -0.68199998
-0.049433898 -0.13598211 -0.68300003
-0.048143674 -0.13598211 -0.68300003
-0.046853449 -0.13598211 -0.68300003
-0.045563225 -0.13598211 -0.68300003
-0.044273 -0.13598211 -0.68300003
-0.043045707 -0.13618121 -0.68400002
-0.041875679 -0.13657939 -0.68599999
-0.040579785 -0.13657939 -0.68599999
-0.039283894 -0.13657939 -0.68599999
-0.037988003 -0.13657939 -0.68599999
-0.036692113 -0.13657939 -0.68599999
-0.035447817 -0.13677849 -0.68699998
-0.034150038 -0.13677849 -0.68699998
-0.032852255 -0.13677849 -0.68699998
-0.031554475 -0.13677849 -0.68699998
-0.030256694 -0.13677849 -0.68699998
-0.028958915 -0.13677849 -0.68699998
-0.027661134 -0.13677849 -0.68699998
-0.026363352 -0.13677849 -0.68699998
-0.02510206 -0.1369776 -0.68800002
-0.02380239 -0.1369776 -0.68800002
-0.02250272 -0.1369776 -0.68800002
-0.02120305 -0.1369776 -0.68800002
-0.01990338 -0.1369776 -0.68800002
-0.01860371 -0.1369776 -0.68800002
-0.017354343 -0.13737577 -0.69
-0.10957109 -0.13503508 -0.67199999
-0.10830165 -0.13503508 -0.67199999
-0.1070322 -0.13503508 -0.67199999
-0.10576276 -0.13503508 -0.67199999
-0.10449331 -0.13503508 -0.67199999
-0.10322387 -0.13503508 -0.67199999
-0.10195442 -0.13503508 -0.67199999
-0.10053515 -0.13483414 -0.671
-0.099267595 -0.13483414 -0.671
-0.098146088 -0.13503508 -0.67199999
-0.096876644 -0.13503508 -0.67199999
-0.095607199 -0.13503508 -0.67199999
-0.09419737 -0.13483414 -0.671
-0.092929818 -0.13483414 -0.671
-0.091662258 -0.13483414 -0.671
-0.090529419 -0.13503508 -0.67199999
-0.089259975 -0.13503508 -0.67199999
-0.088121466 -0.13523602 -0.67299998
-0.086850137 -0.13523602 -0.67299998
-0.085578799 -0.13523602 -0.67299998
-0.084307462 -0.13523602 -0.67299998
-0.083282903 -0.13563792 -0.67500001
-0.082007788 -0.13563792 -0.67500001
-0.080732673 -0.13563792 -0.67500001
-0.079457566 -0.13563792 -0.67500001
-0.078182451 -0.13563792 -0.67500001
-0.076907337 -0.13563792 -0.67500001
-0.075744271 -0.13583887 -0.676
-0.074467272 -0.13583887 -0.676
-0.073190272 -0.13583887 -0.676
-0.071913272 -0.13583887 -0.676
-0.070636272 -0.13583887 -0.676
-0.069359265 -0.13583887 -0.676
-0.068182983 -0.13603981 -0.67699999
-0.06690409 -0.13603981 -0.67699999
-0.065625198 -0.13603981 -0.67699999
-0.064536408 -0.13644171 -0.67900002
-0.063253738 -0.13644171 -0.67900002
-0.061971068 -0.13644171 -0.67900002
-0.060688399 -0.13644171 -0.67900002
-0.059493221 -0.13664265 -0.68000001
-0.058379862 -0.13704453 -0.68199998
-0.057091527 -0.13704453 -0.68199998
-0.055803195 -0.13704453 -0.68199998
-0.054514859 -0.13704453 -0.68199998
-0.053304572 -0.13724549 -0.68300003
-0.052014347 -0.13724549 -0.68300003
-0.050724123 -0.13724549 -0.68300003
-0.049433898 -0.13724549 -0.68300003
-0.048143674 -0.13724549 -0.68300003
-0.046922047 -0.13744643 -0.68400002
-0.045629933 -0.13744643 -0.68400002
-0.04446746 -0.13784832 -0.68599999
-0.04317157 -0.13784832 -0.68599999
-0.041936722 -0.13804926 -0.68699998
-0.040638939 -0.13804926 -0.68699998
-0.039341159 -0.13804926 -0.68699998
-0.03804338 -0.13804926 -0.68699998
-0.036745597 -0.13804926 -0.68699998
-0.035447817 -0.13804926 -0.68699998
-0.034150038 -0.13804926 -0.68699998
-0.032852255 -0.13804926 -0.68699998
-0.031600408 -0.13825022 -0.68800002
-0.030300738 -0.13825022 -0.68800002
-0.029001068 -0.13825022 -0.68800002
-0.027701398 -0.13825022 -0.68800002
-0.026401728 -0.13825022 -0.68800002
-0.025175029 -0.1386521 -0.69
-0.023871582 -0.1386521 -0.69
-0.022568135 -0.1386521 -0.69
-0.021264687 -0.1386521 -0.69
-0.019961238 -0.1386521 -0.69
-0.01865779 -0.1386521 -0.69
-0.017354343 -0.1386521 -0.69
-0.016120682 -0.13925494 -0.69300002
-0.10957109 -0.13627811 -0.67199999
-0.10830165 -0.13627811 -0.67199999
-0.1070322 -0.13627811 -0.67199999
-0.10576276 -0.13627811 -0.67199999
-0.10449331 -0.13627811 -0.67199999
-0.10322387 -0.13627811 -0.67199999
-0.10195442 -0.13627811 -0.67199999
-0.10068498 -0.13627811 -0.67199999
-0.099415533 -0.13627811 -0.67199999
-0.098146088 -0.13627811 -0.67199999
-0.096876644 -0.13627811 -0.67199999
-0.095607199 -0.13627811 -0.67199999
-0.094337754 -0.13627811 -0.67199999
-0.093068309 -0.13627811 -0.67199999
-0.091798864 -0.13627811 -0.67199999
-0.090529419 -0.13627811 -0.67199999
-0.089392804 -0.1364809 -0.67299998
-0.088121466 -0.1364809 -0.67299998
-0.086850137 -0.1364809 -0.67299998
-0.085833125 -0.13688649 -0.67500001
-0.08455801 -0.13688649 -0.67500001
-0.083282903 -0.13688649 -0.67500001
-0.082129277 -0.1370893 -0.676
-0.080852278 -0.1370893 -0.676
-0.079575278 -0.1370893 -0.676
-0.078298278 -0.1370893 -0.676
-0.077021278 -0.1370893 -0.676
-0.075744271 -0.1370893 -0.676
-0.074467272 -0.1370893 -0.676
-0.073298544 -0.13729209 -0.67699999
-0.072019652 -0.13729209 -0.67699999
-0.070740759 -0.13729209 -0.67699999
-0.069461867 -0.13729209 -0.67699999
-0.068182983 -0.13729209 -0.67699999
-0.06690409 -0.13729209 -0.67699999
-0.065819077 -0.13769768 -0.67900002
-0.064536408 -0.13769768 -0.67900002
-0.063346893 -0.13790047 -0.68000001
-0.062062334 -0.13790047 -0.68000001
-0.06077778 -0.13790047 -0.68000001
-0.059668198 -0.13830605 -0.68199998
-0.058379862 -0.13830605 -0.68199998
-0.057091527 -0.13830605 -0.68199998
-0.055803195 -0.13830605 -0.68199998
-0.054594796 -0.13850886 -0.68300003
-0.053304572 -0.13850886 -0.68300003
-0.052014347 -0.13850886 -0.68300003
-0.050798386 -0.13871165 -0.68400002
-0.049506273 -0.13871165 -0.68400002
-0.048355136 -0.13911724 -0.68599999
-0.047059245 -0.13911724 -0.68599999
-0.045763351 -0.13911724 -0.68599999
-0.04453228 -0.13932003 -0.68699998
-0.043234501 -0.13932003 -0.68699998
-0.041936722 -0.13932003 -0.68699998
-0.040638939 -0.13932003 -0.68699998
-0.039341159 -0.13932003 -0.68699998
-0.038098756 -0.13952284 -0.68800002
-0.036799088 -0.13952284 -0.68800002
-0.035499416 -0.13952284 -0.68800002
-0.034199748 -0.13952284 -0.68800002
-0.032900076 -0.13952284 -0.68800002
-0.03169227 -0.13992842 -0.69
-0.030388821 -0.13992842 -0.69
-0.029085374 -0.13992842 -0.69
-0.027781926 -0.13992842 -0.69
-0.026516851 -0.14013121 -0.69099998
-0.025211515 -0.14013121 -0.69099998
-0.023906179 -0.14013121 -0.69099998
-0.022600841 -0.14013121 -0.69099998
-0.021295505 -0.14013121 -0.69099998
-0.019990167 -0.14013121 -0.69099998
-0.018684831 -0.14013121 -0.69099998
-0.017429797 -0.1405368 -0.69300002
-0.016143944 -0.1407396 -0.69400001
-0.10830165 -0.13752113 -0.67199999
-0.1070322 -0.13752113 -0.67199999
-0.10592014 -0.13772577 -0.67299998
-0.10464881 -0.13772577 -0.67299998
-0.10322387 -0.13752113 -0.67199999
-0.10195442 -0.13752113 -0.67199999
-0.10068498 -0.13752113 -0.67199999
-0.099563472 -0.13772577 -0.67299998
-0.098292135 -0.13772577 -0.67299998
-0.097020805 -0.13772577 -0.67299998
-0.095749468 -0.13772577 -0.67299998
-0.094478138 -0.13772577 -0.67299998
-0.093206801 -0.13772577 -0.67299998
-0.091935471 -0.13772577 -0.67299998
-0.090664133 -0.13772577 -0.67299998
-0.089658462 -0.13813508 -0.67500001
-0.088383347 -0.13813508 -0.67500001
-0.08710824 -0.13813508 -0.67500001
-0.085833125 -0.13813508 -0.67500001
-0.084683284 -0.13833971 -0.676
-0.083406277 -0.13833971 -0.676
-0.082129277 -0.13833971 -0.676
-0.080852278 -0.13833971 -0.676
-0.079575278 -0.13833971 -0.676
-0.078298278 -0.13833971 -0.676
-0.077135213 -0.13854435 -0.67699999
-0.075856321 -0.13854435 -0.67699999
-0.074577428 -0.13854435 -0.67699999
-0.07351508 -0.13895366 -0.67900002
-0.072232418 -0.13895366 -0.67900002
-0.070949748 -0.13895366 -0.67900002
-0.069667079 -0.13895366 -0.67900002
-0.068384409 -0.13895366 -0.67900002
-0.067200564 -0.13915829 -0.68000001
-0.065916009 -0.13915829 -0.68000001
-0.064631447 -0.13915829 -0.68000001
-0.063346893 -0.13915829 -0.68000001
-0.06224487 -0.13956758 -0.68199998
-0.060956534 -0.13956758 -0.68199998
-0.059668198 -0.13956758 -0.68199998
-0.05846547 -0.13977224 -0.68300003
-0.057175245 -0.13977224 -0.68300003
-0.055885021 -0.13977224 -0.68300003
-0.054594796 -0.13977224 -0.68300003
-0.053382613 -0.13997687 -0.68400002
-0.0520905 -0.13997687 -0.68400002
-0.050946917 -0.14038616 -0.68599999
-0.049651027 -0.14038616 -0.68599999
-0.048355136 -0.14038616 -0.68599999
-0.047127843 -0.1405908 -0.68699998
-0.045830064 -0.1405908 -0.68699998
-0.04453228 -0.1405908 -0.68699998
-0.043297436 -0.14079545 -0.68800002
-0.041997768 -0.14079545 -0.68800002
-0.040698096 -0.14079545 -0.68800002
-0.039398428 -0.14079545 -0.68800002
-0.038098756 -0.14079545 -0.68800002
-0.036799088 -0.14079545 -0.68800002
-0.035602611 -0.14120474 -0.69
-0.034299165 -0.14120474 -0.69
-0.032995716 -0.14120474 -0.69
-0.031738199 -0.14140938 -0.69099998
-0.030432861 -0.14140938 -0.69099998
-0.029127525 -0.14140938 -0.69099998
-0.027902717 -0.14181867 -0.69300002
-0.026593601 -0.14181867 -0.69300002
-0.025284488 -0.14181867 -0.69300002
-0.023975372 -0.14181867 -0.69300002
-0.022666257 -0.14181867 -0.69300002
-0.021357141 -0.14181867 -0.69300002
-0.020048028 -0.14181867 -0.69300002
-0.018738912 -0.14181867 -0.69300002
-0.017429797 -0.14181867 -0.69300002
-0.016143944 -0.14202332 -0.69400001
-0.10846281 -0.13897066 -0.67299998
-0.10719147 -0.13897066 -0.67299998
-0.10592014 -0.13897066 -0.67299998
-0.10464881 -0.13897066 -0.67299998
-0.10337748 -0.13897066 -0.67299998
-0.10210614 -0.13897066 -0.67299998
-0.1008348 -0.13897066 -0.67299998
-0.099859357 -0.13938364 -0.67500001
-0.098584242 -0.13938364 -0.67500001
-0.097309135 -0.13938364 -0.67500001
-0.09603402 -0.13938364 -0.67500001
-0.094758905 -0.13938364 -0.67500001
-0.093483798 -0.13938364 -0.67500001
-0.092208683 -0.13938364 -0.67500001
-0.090933569 -0.13938364 -0.67500001
-0.089791283 -0.13959014 -0.676
-0.088514283 -0.13959014 -0.676
-0.087237284 -0.13959014 -0.676
-0.085960284 -0.13959014 -0.676
-0.084683284 -0.13959014 -0.676
-0.083529659 -0.13979663 -0.67699999
-0.082250774 -0.13979663 -0.67699999
-0.080971882 -0.13979663 -0.67699999
-0.07969299 -0.13979663 -0.67699999
-0.078414097 -0.13979663 -0.67699999
-0.077363089 -0.14020963 -0.67900002
-0.076080419 -0.14020963 -0.67900002
-0.074907906 -0.14041612 -0.68000001
-0.073623352 -0.14041612 -0.68000001
-0.072338797 -0.14041612 -0.68000001
-0.071054235 -0.14041612 -0.68000001
-0.069769681 -0.14041612 -0.68000001
-0.068485126 -0.14041612 -0.68000001
-0.067200564 -0.14041612 -0.68000001
-0.066109873 -0.1408291 -0.68199998
-0.064821541 -0.1408291 -0.68199998
-0.063533202 -0.1408291 -0.68199998
-0.06224487 -0.1408291 -0.68199998
-0.061045919 -0.1410356 -0.68300003
-0.059755694 -0.1410356 -0.68300003
-0.05846547 -0.1410356 -0.68300003
-0.057175245 -0.1410356 -0.68300003
-0.055966843 -0.1412421 -0.68400002
-0.05467473 -0.1412421 -0.68400002
-0.053538702 -0.14165509 -0.68599999
-0.052242812 -0.14165509 -0.68599999
-0.051021185 -0.14186157 -0.68699998
-0.049723405 -0.14186157 -0.68699998
-0.048425622 -0.14186157 -0.68699998
-0.047127843 -0.14186157 -0.68699998
-0.045896776 -0.14206807 -0.68800002
-0.044597104 -0.14206807 -0.68800002
-0.043297436 -0.14206807 -0.68800002
-0.041997768 -0.14206807 -0.68800002
-0.040698096 -0.14206807 -0.68800002
-0.039512955 -0.14248106 -0.69
-0.038209509 -0.14248106 -0.69
-0.03690606 -0.14248106 -0.69
-0.035602611 -0.14248106 -0.69
-0.034348872 -0.14268754 -0.69099998
-0.033043537 -0.14268754 -0.69099998
-0.031830061 -0.14310054 -0.69300002
-0.030520948 -0.14310054 -0.69300002
-0.029211832 -0.14310054 -0.69300002
-0.027902717 -0.14310054 -0.69300002
-0.026593601 -0.14310054 -0.69300002
-0.025284488 -0.14310054 -0.69300002
-0.023975372 -0.14310054 -0.69300002
-0.022666257 -0.14310054 -0.69300002
-0.021357141 -0.14310054 -0.69300002
-0.020048028 -0.14310054 -0.69300002
-0.10878514 -0.14063223 -0.67500001
-0.10719147 -0.14021553 -0.67299998
-0.10623492 -0.14063223 -0.67500001
-0.1049598 -0.14063223 -0.67500001
-0.10368469 -0.14063223 -0.67500001
-0.10240958 -0.14063223 -0.67500001
