# .PCD v0.7 - Point Cloud Data file format
VERSION 0.7
FIELDS x y z
SIZE 4 4 4
TYPE F F F
COUNT 1 1 1
WIDTH 1358
HEIGHT 1
VIEWPOINT 0 0 0 1 0 0 0
POINTS 1358
DATA ascii
0.064821586 -0.09346249 -0.67699999
0.066100478 -0.09346249 -0.67699999
0.06737937 -0.09346249 -0.67699999
0.06886109 -0.093738601 -0.67900002
0.070247062 -0.093876652 -0.68000001
0.071531624 -0.093876652 -0.68000001
0.072816178 -0.093876652 -0.68000001
0.074318677 -0.094152763 -0.68199998
0.075607009 -0.094152763 -0.68199998
0.077008106 -0.094290823 -0.68300003
0.07829833 -0.094290823 -0.68300003
0.079588555 -0.094290823 -0.68300003
0.080878779 -0.094290823 -0.68300003
0.082169004 -0.094290823 -0.68300003
0.083459228 -0.094290823 -0.68300003
0.084873535 -0.094428875 -0.68400002
0.086417586 -0.094704978 -0.68599999
0.08771348 -0.094704978 -0.68599999
0.089139119 -0.09484303 -0.68699998
0.090436906 -0.09484303 -0.68699998
0.091868222 -0.094981089 -0.68800002
0.093167886 -0.094981089 -0.68800002
0.094742171 -0.095257193 -0.69
0.096045621 -0.095257193 -0.69
0.097490147 -0.095395245 -0.69099998
0.099081442 -0.095671356 -0.69300002
0.033383079 -0.096253708 -0.68800002
0.034632336 -0.096113801 -0.68699998
0.035773218 -0.095694095 -0.68400002
0.036956951 -0.095414281 -0.68199998
0.038245287 -0.095414281 -0.68199998
0.039243788 -0.094714768 -0.67699999
0.040462822 -0.094574861 -0.676
0.041739821 -0.094574861 -0.676
0.043016825 -0.094574861 -0.676
0.044293825 -0.094574861 -0.676
0.045503415 -0.094434962 -0.67500001
0.046778526 -0.094434962 -0.67500001
0.048053637 -0.094434962 -0.67500001
0.049328752 -0.094434962 -0.67500001
0.050603863 -0.094434962 -0.67500001
0.051878974 -0.094434962 -0.67500001
0.053232834 -0.094574861 -0.676
0.054509833 -0.094574861 -0.676
0.055786833 -0.094574861 -0.676
0.057063837 -0.094574861 -0.676
0.058340836 -0.094574861 -0.676
0.059706029 -0.094714768 -0.67699999
0.060984917 -0.094714768 -0.67699999
0.062263809 -0.094714768 -0.67699999
0.063542701 -0.094714768 -0.67699999
0.065013088 -0.094994575 -0.67900002
0.066295758 -0.094994575 -0.67900002
0.067677952 -0.095134482 -0.68000001
0.069165334 -0.095414281 -0.68199998
0.070453674 -0.095414281 -0.68199998
0.071742006 -0.095414281 -0.68199998
0.073030345 -0.095414281 -0.68199998
0.074427657 -0.095554195 -0.68300003
0.075717881 -0.095554195 -0.68300003
0.077008106 -0.095554195 -0.68300003
0.07829833 -0.095554195 -0.68300003
0.079588555 -0.095554195 -0.68300003
0.080997191 -0.095694095 -0.68400002
0.082289308 -0.095694095 -0.68400002
0.083581418 -0.095694095 -0.68400002
0.085121699 -0.095973901 -0.68599999
0.086417586 -0.095973901 -0.68599999
0.087841339 -0.096113801 -0.68699998
0.089139119 -0.096113801 -0.68699998
0.09056855 -0.096253708 -0.68800002
0.091868222 -0.096253708 -0.68800002
0.093438722 -0.096533515 -0.69
0.094742171 -0.096533515 -0.69
0.096045621 -0.096533515 -0.69
0.097490147 -0.096673414 -0.69099998
0.098795488 -0.096673414 -0.69099998
0.10039055 -0.096953228 -0.69300002
0.033383079 -0.097526334 -0.68800002
0.034481104 -0.096959315 -0.68400002
0.035668615 -0.096675806 -0.68199998
0.036956951 -0.096675806 -0.68199998
0.038133133 -0.096392304 -0.68000001
0.039243788 -0.095967039 -0.67699999
0.040522676 -0.095967039 -0.67699999
0.041739821 -0.095825285 -0.676
0.043016825 -0.095825285 -0.676
0.044293825 -0.095825285 -0.676
0.045570824 -0.095825285 -0.676
0.046847828 -0.095825285 -0.676
0.048124827 -0.095825285 -0.676
0.049401827 -0.095825285 -0.676
0.050678831 -0.095825285 -0.676
0.05195583 -0.095825285 -0.676
0.053232834 -0.095825285 -0.676
0.054590467 -0.095967039 -0.67699999
0.05586936 -0.095967039 -0.67699999
0.057148248 -0.095967039 -0.67699999
0.058427136 -0.095967039 -0.67699999
0.059706029 -0.095967039 -0.67699999
0.061165083 -0.096250549 -0.67900002
0.062447753 -0.096250549 -0.67900002
0.063730419 -0.096250549 -0.67900002
0.065108836 -0.096392304 -0.68000001
0.066588663 -0.096675806 -0.68199998
0.067877002 -0.096675806 -0.68199998
0.069165334 -0.096675806 -0.68199998
0.070556983 -0.096817568 -0.68300003
0.071847208 -0.096817568 -0.68300003
0.073137432 -0.096817568 -0.68300003
0.074427657 -0.096817568 -0.68300003
0.075717881 -0.096817568 -0.68300003
0.077120848 -0.096959315 -0.68400002
0.078412965 -0.096959315 -0.68400002
0.079705082 -0.096959315 -0.68400002
0.080997191 -0.096959315 -0.68400002
0.082529917 -0.097242817 -0.68599999
0.083825804 -0.097242817 -0.68599999
0.085245781 -0.097384572 -0.68699998
0.08654356 -0.097384572 -0.68699998
0.087841339 -0.097384572 -0.68699998
0.089268878 -0.097526334 -0.68800002
0.09056855 -0.097526334 -0.68800002
0.092135273 -0.097809836 -0.69
0.093438722 -0.097809836 -0.69
0.094742171 -0.097809836 -0.69
0.096184812 -0.097951584 -0.69099998
0.097490147 -0.097951584 -0.69099998
0.099081442 -0.098235101 -0.69300002
0.10039055 -0.098235101 -0.69300002
0.033334557 -0.098655343 -0.68699998
0.034380279 -0.097937331 -0.68199998
0.035668615 -0.097937331 -0.68199998
0.036848575 -0.097650126 -0.68000001
0.038077056 -0.097506523 -0.67900002
0.039243788 -0.097219311 -0.67699999
0.040522676 -0.097219311 -0.67699999
0.041801568 -0.097219311 -0.67699999
0.043080457 -0.097219311 -0.67699999
0.044293825 -0.097075708 -0.676
0.045570824 -0.097075708 -0.676
0.046847828 -0.097075708 -0.676
0.048124827 -0.097075708 -0.676
0.049401827 -0.097075708 -0.676
0.050678831 -0.097075708 -0.676
0.052032687 -0.097219311 -0.67699999
0.053311579 -0.097219311 -0.67699999
0.054590467 -0.097219311 -0.67699999
0.05586936 -0.097219311 -0.67699999
0.057148248 -0.097219311 -0.67699999
0.058599748 -0.097506523 -0.67900002
0.059970606 -0.097650126 -0.68000001
0.061255164 -0.097650126 -0.68000001
0.062539719 -0.097650126 -0.68000001
0.064011991 -0.097937331 -0.68199998
0.065300331 -0.097937331 -0.68199998
0.06668631 -0.098080941 -0.68300003
0.067976534 -0.098080941 -0.68300003
0.069266759 -0.098080941 -0.68300003
0.070556983 -0.098080941 -0.68300003
0.071847208 -0.098080941 -0.68300003
0.073137432 -0.098080941 -0.68300003
0.074536622 -0.098224536 -0.68400002
0.075828739 -0.098224536 -0.68400002
0.077120848 -0.098224536 -0.68400002
0.078642242 -0.098511741 -0.68599999
0.079938129 -0.098511741 -0.68599999
0.081234023 -0.098511741 -0.68599999
0.082650222 -0.098655343 -0.68699998
0.083948001 -0.098655343 -0.68699998
0.085245781 -0.098655343 -0.68699998
0.08654356 -0.098655343 -0.68699998
0.087969206 -0.098798953 -0.68800002
0.089268878 -0.098798953 -0.68800002
0.09056855 -0.098798953 -0.68800002
0.092135273 -0.099086158 -0.69
0.093574136 -0.099229753 -0.69099998
0.094879478 -0.099229753 -0.69099998
0.096184812 -0.099229753 -0.69099998
0.097772323 -0.099516965 -0.69300002
0.099081442 -0.099516965 -0.69300002
0.10039055 -0.099516965 -0.69300002
0.10199317 -0.09980417 -0.69499999
0.033140469 -0.099344313 -0.68300003
0.034380279 -0.099198848 -0.68199998
0.035564017 -0.098907948 -0.68000001
0.036848575 -0.098907948 -0.68000001
0.038077056 -0.098762497 -0.67900002
0.039359722 -0.098762497 -0.67900002
0.040522676 -0.098471589 -0.67699999
0.041801568 -0.098471589 -0.67699999
0.043080457 -0.098471589 -0.67699999
0.044359349 -0.098471589 -0.67699999
0.045638237 -0.098471589 -0.67699999
0.046917129 -0.098471589 -0.67699999
0.048196018 -0.098471589 -0.67699999
0.049474906 -0.098471589 -0.67699999
0.050753798 -0.098471589 -0.67699999
0.052032687 -0.098471589 -0.67699999
0.053469073 -0.098762497 -0.67900002
0.054751743 -0.098762497 -0.67900002
0.056034412 -0.098762497 -0.67900002
0.057401493 -0.098907948 -0.68000001
0.058686048 -0.098907948 -0.68000001
0.060146987 -0.099198848 -0.68199998
0.061435323 -0.099198848 -0.68199998
0.062723659 -0.099198848 -0.68199998
0.064105861 -0.099344313 -0.68300003
0.065396085 -0.099344313 -0.68300003
0.06668631 -0.099344313 -0.68300003
0.067976534 -0.099344313 -0.68300003
0.069266759 -0.099344313 -0.68300003
0.070660286 -0.099489763 -0.68400002
0.071952395 -0.099489763 -0.68400002
0.073244512 -0.099489763 -0.68400002
0.074754566 -0.099780664 -0.68599999
0.076050453 -0.099780664 -0.68599999
0.077346347 -0.099780664 -0.68599999
0.078642242 -0.099780664 -0.68599999
0.080054656 -0.099926114 -0.68699998
0.081352435 -0.099926114 -0.68699998
0.082650222 -0.099926114 -0.68699998
0.083948001 -0.099926114 -0.68699998
0.08536987 -0.10007157 -0.68800002
0.086669542 -0.10007157 -0.68800002
0.087969206 -0.10007157 -0.68800002
0.089268878 -0.10007157 -0.68800002
0.090831824 -0.10036248 -0.69
0.092268802 -0.10050793 -0.69099998
0.093574136 -0.10050793 -0.69099998
0.095154092 -0.10079884 -0.69300002
0.096463211 -0.10079884 -0.69300002
0.097772323 -0.10079884 -0.69300002
0.099081442 -0.10079884 -0.69300002
0.10053542 -0.10094429 -0.69400001
0.10199317 -0.10108974 -0.69499999
0.10360336 -0.10138065 -0.69700003
0.033091947 -0.10046037 -0.68199998
0.034380279 -0.10046037 -0.68199998
0.035564017 -0.10016577 -0.68000001
0.036848575 -0.10016577 -0.68000001
0.038077056 -0.10001847 -0.67900002
0.039359722 -0.10001847 -0.67900002
0.040642392 -0.10001847 -0.67900002
0.041925061 -0.10001847 -0.67900002
0.043207727 -0.10001847 -0.67900002
0.044359349 -0.099723861 -0.67699999
0.045638237 -0.099723861 -0.67699999
0.046917129 -0.099723861 -0.67699999
0.048196018 -0.099723861 -0.67699999
0.049474906 -0.099723861 -0.67699999
0.050753798 -0.099723861 -0.67699999
0.052186407 -0.10001847 -0.67900002
0.053469073 -0.10001847 -0.67900002
0.054832377 -0.10016577 -0.68000001
0.056116935 -0.10016577 -0.68000001
0.057401493 -0.10016577 -0.68000001
0.058858652 -0.10046037 -0.68199998
0.060146987 -0.10046037 -0.68199998
0.061435323 -0.10046037 -0.68199998
0.062815636 -0.10060769 -0.68300003
0.064105861 -0.10060769 -0.68300003
0.065396085 -0.10060769 -0.68300003
0.066783942 -0.10075498 -0.68400002
0.068076059 -0.10075498 -0.68400002
0.069368169 -0.10075498 -0.68400002
0.070660286 -0.10075498 -0.68400002
0.071952395 -0.10075498 -0.68400002
0.073458672 -0.10104959 -0.68599999
0.074754566 -0.10104959 -0.68599999
0.076161318 -0.10119689 -0.68699998
0.077459097 -0.10119689 -0.68699998
0.078756876 -0.10119689 -0.68699998
0.080054656 -0.10119689 -0.68699998
0.081470862 -0.1013442 -0.68800002
0.082770534 -0.1013442 -0.68800002
0.084070198 -0.1013442 -0.68800002
0.085618034 -0.10163879 -0.69
0.086921483 -0.10163879 -0.69
0.088352792 -0.1017861 -0.69099998
0.089658126 -0.1017861 -0.69099998
0.090963468 -0.1017861 -0.69099998
0.092535868 -0.10208071 -0.69300002
0.09384498 -0.10208071 -0.69300002
0.095154092 -0.10208071 -0.69300002
0.096463211 -0.10208071 -0.69300002
0.097772323 -0.10208071 -0.69300002
0.099224411 -0.10222801 -0.69400001
0.10068028 -0.10237531 -0.69499999
0.10228668 -0.10266992 -0.69700003
0.10360336 -0.10266992 -0.69700003
0.10537161 -0.10311182 -0.69999999
0.033091947 -0.1017219 -0.68199998
0.034279462 -0.1014236 -0.68000001
0.035564017 -0.1014236 -0.68000001
0.036848575 -0.1014236 -0.68000001
0.038133133 -0.1014236 -0.68000001
0.039359722 -0.10127445 -0.67900002
0.040642392 -0.10127445 -0.67900002
0.041925061 -0.10127445 -0.67900002
0.043207727 -0.10127445 -0.67900002
0.044490397 -0.10127445 -0.67900002
0.045773063 -0.10127445 -0.67900002
0.047055732 -0.10127445 -0.67900002
0.048338402 -0.10127445 -0.67900002
0.049621068 -0.10127445 -0.67900002
0.050903738 -0.10127445 -0.67900002
0.052263264 -0.1014236 -0.68000001
0.053547818 -0.1014236 -0.68000001
0.054993648 -0.1017219 -0.68199998
0.056281984 -0.1017219 -0.68199998
0.057570316 -0.1017219 -0.68199998
0.058858652 -0.1017219 -0.68199998
0.060235184 -0.10187106 -0.68300003
0.061525408 -0.10187106 -0.68300003
0.062815636 -0.10187106 -0.68300003
0.064199716 -0.1020202 -0.68400002
0.065491833 -0.1020202 -0.68400002
0.066783942 -0.1020202 -0.68400002
0.068076059 -0.1020202 -0.68400002
0.069368169 -0.1020202 -0.68400002
0.07086689 -0.10231851 -0.68599999
0.072162785 -0.10231851 -0.68599999
0.073565751 -0.10246766 -0.68699998
0.074863538 -0.10246766 -0.68699998
0.076161318 -0.10246766 -0.68699998
0.077459097 -0.10246766 -0.68699998
0.078756876 -0.10246766 -0.68699998
0.08017119 -0.10261682 -0.68800002
0.081470862 -0.10261682 -0.68800002
0.083011135 -0.10291512 -0.69
0.084314585 -0.10291512 -0.69
0.085742116 -0.10306427 -0.69099998
0.087047458 -0.10306427 -0.69099998
0.088608518 -0.10336258 -0.69300002
0.089917637 -0.10336258 -0.69300002
0.091226749 -0.10336258 -0.69300002
0.092535868 -0.10336258 -0.69300002
0.09384498 -0.10336258 -0.69300002
0.095154092 -0.10336258 -0.69300002
0.096463211 -0.10336258 -0.69300002
0.097913407 -0.10351173 -0.69400001
0.099367388 -0.10366088 -0.69499999
0.10097001 -0.10395919 -0.69700003
0.10228668 -0.10395919 -0.69700003
0.10375199 -0.10410834 -0.69800001
0.10537161 -0.10440664 -0.69999999
0.10715121 -0.1048541 -0.70300001
0.033091947 -0.10298342 -0.68199998
0.034279462 -0.10268142 -0.68000001
0.035564017 -0.10268142 -0.68000001
0.036848575 -0.10268142 -0.68000001
0.038133133 -0.10268142 -0.68000001
0.039417692 -0.10268142 -0.68000001
0.040702246 -0.10268142 -0.68000001
0.041986804 -0.10268142 -0.68000001
0.043271363 -0.10268142 -0.68000001
0.044555917 -0.10268142 -0.68000001
0.045840476 -0.10268142 -0.68000001
0.047125034 -0.10268142 -0.68000001
0.048409592 -0.10268142 -0.68000001
0.049694147 -0.10268142 -0.68000001
0.050978705 -0.10268142 -0.68000001
0.052416977 -0.10298342 -0.68199998
0.053705312 -0.10298342 -0.68199998
0.054993648 -0.10298342 -0.68199998
0.05636451 -0.10313443 -0.68300003
0.057654735 -0.10313443 -0.68300003
0.058944959 -0.10313443 -0.68300003
0.060235184 -0.10313443 -0.68300003
0.061615489 -0.10328543 -0.68400002
0.062907599 -0.10328543 -0.68400002
0.064387433 -0.10358743 -0.68599999
0.06568332 -0.10358743 -0.68599999
0.066979215 -0.10358743 -0.68599999
0.068275109 -0.10358743 -0.68599999
0.069570996 -0.10358743 -0.68599999
0.070970193 -0.10373843 -0.68699998
0.072267972 -0.10373843 -0.68699998
0.073565751 -0.10373843 -0.68699998
0.074863538 -0.10373843 -0.68699998
0.076272182 -0.10388944 -0.68800002
0.077571854 -0.10388944 -0.68800002
0.078871518 -0.10388944 -0.68800002
0.080404244 -0.10419144 -0.69
0.081707694 -0.10419144 -0.69
0.08313144 -0.10434244 -0.69099998
0.084436782 -0.10434244 -0.69099998
0.085990287 -0.10464445 -0.69300002
0.087299407 -0.10464445 -0.69300002
0.088608518 -0.10464445 -0.69300002
0.089917637 -0.10464445 -0.69300002
0.091358386 -0.10479545 -0.69400001
0.09266939 -0.10479545 -0.69400001
0.093980394 -0.10479545 -0.69400001
0.095291398 -0.10479545 -0.69400001
0.096602403 -0.10479545 -0.69400001
0.098054491 -0.10494645 -0.69499999
0.099653341 -0.10524846 -0.69700003
0.10111487 -0.10539946 -0.69800001
0.10243344 -0.10539946 -0.69800001
0.10404927 -0.10570145 -0.69999999
0.10552214 -0.10585245 -0.70099998
0.10715121 -0.10615446 -0.70300001
0.10863353 -0.10630547 -0.704
0.023286406 -0.10653773 -0.69700003
0.033091947 -0.10424494 -0.68199998
0.034279462 -0.10393924 -0.68000001
0.035564017 -0.10393924 -0.68000001
0.036848575 -0.10393924 -0.68000001
0.038133133 -0.10393924 -0.68000001
0.039417692 -0.10393924 -0.68000001
0.040702246 -0.10393924 -0.68000001
0.041986804 -0.10393924 -0.68000001
0.043271363 -0.10393924 -0.68000001
0.044686966 -0.10424494 -0.68199998
0.045975298 -0.10424494 -0.68199998
0.047263633 -0.10424494 -0.68199998
0.048551969 -0.10424494 -0.68199998
0.049840305 -0.10424494 -0.68199998
0.051128641 -0.10424494 -0.68199998
0.052416977 -0.10424494 -0.68199998
0.053784061 -0.1043978 -0.68300003
0.055074286 -0.1043978 -0.68300003
0.05636451 -0.1043978 -0.68300003
0.05773915 -0.10455065 -0.68400002
0.059031263 -0.10455065 -0.68400002
0.060323376 -0.10455065 -0.68400002
0.061795648 -0.10485635 -0.68599999
0.063091539 -0.10485635 -0.68599999
0.064481288 -0.1050092 -0.68699998
0.065779068 -0.1050092 -0.68699998
0.067076854 -0.1050092 -0.68699998
0.068374634 -0.1050092 -0.68699998
0.069672413 -0.1050092 -0.68699998
0.070970193 -0.1050092 -0.68699998
0.072267972 -0.1050092 -0.68699998
0.073672839 -0.10516206 -0.68800002
0.07497251 -0.10516206 -0.68800002
0.076272182 -0.10516206 -0.68800002
0.077797346 -0.10546776 -0.69
0.079100795 -0.10546776 -0.69
0.080520771 -0.10562061 -0.69099998
0.081826106 -0.10562061 -0.69099998
0.083372056 -0.10592632 -0.69300002
0.084681176 -0.10592632 -0.69300002
0.085990287 -0.10592632 -0.69300002
0.087299407 -0.10592632 -0.69300002
0.088736378 -0.10607917 -0.69400001
0.090047382 -0.10607917 -0.69400001
0.091358386 -0.10607917 -0.69400001
0.09266939 -0.10607917 -0.69400001
0.094115816 -0.10623202 -0.69499999
0.095428705 -0.10623202 -0.69499999
0.096741602 -0.10623202 -0.69499999
0.098336667 -0.10653773 -0.69700003
0.09979631 -0.10669058 -0.69800001
0.1014046 -0.10699628 -0.69999999
0.10272694 -0.10699628 -0.69999999
0.10419791 -0.10714912 -0.70099998
0.10552214 -0.10714912 -0.70099998
0.10715121 -0.10745484 -0.70300001
0.10863353 -0.10760769 -0.704
0.10996342 -0.10760769 -0.704
0.021969736 -0.10782699 -0.69700003
0.023286406 -0.10782699 -0.69700003
0.024603078 -0.10782699 -0.69700003
0.033091947 -0.10550646 -0.68199998
0.034380279 -0.10550646 -0.68199998
0.035564017 -0.10519706 -0.68000001
0.036848575 -0.10519706 -0.68000001
0.038133133 -0.10519706 -0.68000001
0.039417692 -0.10519706 -0.68000001
0.040702246 -0.10519706 -0.68000001
0.041986804 -0.10519706 -0.68000001
0.04339863 -0.10550646 -0.68199998
0.044686966 -0.10550646 -0.68199998
0.045975298 -0.10550646 -0.68199998
0.047263633 -0.10550646 -0.68199998
0.048551969 -0.10550646 -0.68199998
0.049840305 -0.10550646 -0.68199998
0.051203612 -0.10566118 -0.68300003
0.052493837 -0.10566118 -0.68300003
0.053784061 -0.10566118 -0.68300003
0.05515492 -0.10581587 -0.68400002
0.056447037 -0.10581587 -0.68400002
0.057907972 -0.10612527 -0.68599999
0.059203867 -0.10612527 -0.68599999
0.060499758 -0.10612527 -0.68599999
0.061795648 -0.10612527 -0.68599999
0.063183509 -0.10627997 -0.68699998
0.064481288 -0.10627997 -0.68699998
0.065779068 -0.10627997 -0.68699998
0.067076854 -0.10627997 -0.68699998
0.068374634 -0.10627997 -0.68699998
0.069672413 -0.10627997 -0.68699998
0.070970193 -0.10627997 -0.68699998
0.072373174 -0.10643468 -0.68800002
0.073672839 -0.10643468 -0.68800002
0.075190455 -0.10674408 -0.69
0.076604761 -0.10689878 -0.69099998
0.077910095 -0.10689878 -0.69099998
0.07921543 -0.10689878 -0.69099998
0.080753833 -0.10720818 -0.69300002
0.082062945 -0.10720818 -0.69300002
0.083372056 -0.10720818 -0.69300002
0.084803365 -0.10736289 -0.69400001
0.086114369 -0.10736289 -0.69400001
0.087425373 -0.10736289 -0.69400001
0.088736378 -0.10736289 -0.69400001
0.090047382 -0.10736289 -0.69400001
0.09149003 -0.10751759 -0.69499999
0.092802919 -0.10751759 -0.69499999
0.094386652 -0.10782699 -0.69700003
0.095703326 -0.10782699 -0.69700003
0.09702 -0.10782699 -0.69700003
0.098477751 -0.1079817 -0.69800001
0.10008226 -0.1082911 -0.69999999
0.1014046 -0.1082911 -0.69999999
0.10287368 -0.10844579 -0.70099998
0.10419791 -0.10844579 -0.70099998
0.1058232 -0.1087552 -0.70300001
0.10715121 -0.1087552 -0.70300001
0.10863353 -0.1089099 -0.704
0.10996342 -0.1089099 -0.704
0.020682694 -0.10927282 -0.69800001
0.021969736 -0.10911626 -0.69700003
0.023286406 -0.10911626 -0.69700003
0.024603078 -0.10911626 -0.69700003
0.033091947 -0.10676799 -0.68199998
0.034380279 -0.10676799 -0.68199998
0.035668615 -0.10676799 -0.68199998
0.036848575 -0.10645489 -0.68000001
0.038133133 -0.10645489 -0.68000001
0.039533623 -0.10676799 -0.68199998
0.040821958 -0.10676799 -0.68199998
0.042110294 -0.10676799 -0.68199998
0.04339863 -0.10676799 -0.68199998
0.044686966 -0.10676799 -0.68199998
0.045975298 -0.10676799 -0.68199998
0.047332939 -0.10692455 -0.68300003
0.048623163 -0.10692455 -0.68300003
0.049913388 -0.10692455 -0.68300003
0.051203612 -0.10692455 -0.68300003
0.052570693 -0.10708109 -0.68400002
0.053862806 -0.10708109 -0.68400002
0.055316191 -0.1073942 -0.68599999
0.056694604 -0.10755074 -0.68699998
0.057992388 -0.10755074 -0.68699998
0.059290167 -0.10755074 -0.68699998
0.060587946 -0.10755074 -0.68699998
0.061885729 -0.10755074 -0.68699998
0.063183509 -0.10755074 -0.68699998
0.064481288 -0.10755074 -0.68699998
0.065874822 -0.1077073 -0.68800002
0.067174494 -0.1077073 -0.68800002
0.068474166 -0.1077073 -0.68800002
0.06977383 -0.1077073 -0.68800002
0.071073502 -0.1077073 -0.68800002
0.072583556 -0.1080204 -0.69
0.073994085 -0.10817695 -0.69099998
0.075299419 -0.10817695 -0.69099998
0.076826483 -0.10849006 -0.69300002
0.078135602 -0.10849006 -0.69300002
0.079444714 -0.10849006 -0.69300002
0.080870353 -0.10864661 -0.69400001
0.082181357 -0.10864661 -0.69400001
0.083492361 -0.10864661 -0.69400001
0.084803365 -0.10864661 -0.69400001
0.086114369 -0.10864661 -0.69400001
0.087551348 -0.10880315 -0.69499999
0.088864245 -0.10880315 -0.69499999
0.090436637 -0.10911626 -0.69700003
0.091753311 -0.10911626 -0.69700003
0.093069986 -0.10911626 -0.69700003
0.094522074 -0.10927282 -0.69800001
0.095840633 -0.10927282 -0.69800001
0.097159192 -0.10927282 -0.69800001
0.098759919 -0.10958591 -0.69999999
0.10008226 -0.10958591 -0.69999999
0.10154946 -0.10974246 -0.70099998
0.10287368 -0.10974246 -0.70099998
0.1044952 -0.11005557 -0.70300001
0.1058232 -0.11005557 -0.70300001
0.10730363 -0.11021212 -0.704
0.10863353 -0.11021212 -0.704
0.10996342 -0.11021212 -0.704
0.019364135 -0.11056393 -0.69800001
0.020682694 -0.11056393 -0.69800001
0.021969736 -0.11040553 -0.69700003
0.023286406 -0.11040553 -0.69700003
0.024603078 -0.11040553 -0.69700003
0.033091947 -0.10802951 -0.68199998
0.034380279 -0.10802951 -0.68199998
0.035668615 -0.10802951 -0.68199998
0.036956951 -0.10802951 -0.68199998
0.038245287 -0.10802951 -0.68199998
0.039533623 -0.10802951 -0.68199998
0.040821958 -0.10802951 -0.68199998
0.042110294 -0.10802951 -0.68199998
0.043462265 -0.10818792 -0.68300003
0.04475249 -0.10818792 -0.68300003
0.046042714 -0.10818792 -0.68300003
0.047332939 -0.10818792 -0.68300003
0.048694354 -0.10834632 -0.68400002
0.049986467 -0.10834632 -0.68400002
0.051428515 -0.10866311 -0.68599999
0.052724406 -0.10866311 -0.68599999
0.054099046 -0.10882151 -0.68699998
0.055396825 -0.10882151 -0.68699998
0.056694604 -0.10882151 -0.68699998
0.058076806 -0.10897993 -0.68800002
0.059376474 -0.10897993 -0.68800002
0.060676143 -0.10897993 -0.68800002
0.061975814 -0.10897993 -0.68800002
0.063275486 -0.10897993 -0.68800002
0.064575151 -0.10897993 -0.68800002
0.065874822 -0.10897993 -0.68800002
0.067174494 -0.10897993 -0.68800002
0.068673216 -0.10929672 -0.69
0.069976658 -0.10929672 -0.69
0.071383409 -0.10945512 -0.69099998
0.07289914 -0.10977193 -0.69300002
0.074208252 -0.10977193 -0.69300002
0.075517371 -0.10977193 -0.69300002
0.07693734 -0.10993033 -0.69400001
0.078248344 -0.10993033 -0.69400001
0.079559349 -0.10993033 -0.69400001
0.080870353 -0.10993033 -0.69400001
0.082181357 -0.10993033 -0.69400001
0.083612666 -0.11008873 -0.69499999
0.084925562 -0.11008873 -0.69499999
0.086238451 -0.11008873 -0.69499999
0.087551348 -0.11008873 -0.69499999
0.089119971 -0.11040553 -0.69700003
0.090436637 -0.11040553 -0.69700003
0.091884948 -0.11056393 -0.69800001
0.093203507 -0.11056393 -0.69800001
0.094522074 -0.11056393 -0.69800001
0.095840633 -0.11056393 -0.69800001
0.097437583 -0.11088073 -0.69999999
0.098759919 -0.11088073 -0.69999999
0.10022523 -0.11103913 -0.70099998
0.10154946 -0.11103913 -0.70099998
0.1031672 -0.11135594 -0.70300001
0.1044952 -0.11135594 -0.70300001
0.10597374 -0.11151434 -0.704
0.10730363 -0.11151434 -0.704
0.10863353 -0.11151434 -0.704
0.10996342 -0.11151434 -0.704
0.016703051 -0.11169481 -0.69700003
0.018019721 -0.11169481 -0.69700003
0.019364135 -0.11185505 -0.69800001
0.020653063 -0.11169481 -0.69700003
0.021969736 -0.11169481 -0.69700003
0.023219587 -0.1113743 -0.69499999
0.02453248 -0.1113743 -0.69499999
0.033140469 -0.10945129 -0.68300003
0.034380279 -0.10929103 -0.68199998
0.035668615 -0.10929103 -0.68199998
0.036956951 -0.10929103 -0.68199998
0.038245287 -0.10929103 -0.68199998
0.039533623 -0.10929103 -0.68199998
0.040821958 -0.10929103 -0.68199998
0.042172041 -0.10945129 -0.68300003
0.043462265 -0.10945129 -0.68300003
0.04475249 -0.10945129 -0.68300003
0.046110127 -0.10961154 -0.68400002
0.04740224 -0.10961154 -0.68400002
0.048836734 -0.10993204 -0.68599999
0.050205704 -0.11009228 -0.68699998
0.051503483 -0.11009228 -0.68699998
0.052801266 -0.11009228 -0.68699998
0.054177795 -0.11025254 -0.68800002
0.055477466 -0.11025254 -0.68800002
0.056777135 -0.11025254 -0.68800002
0.058076806 -0.11025254 -0.68800002
0.059376474 -0.11025254 -0.68800002
0.060676143 -0.11025254 -0.68800002
0.061975814 -0.11025254 -0.68800002
0.063275486 -0.11025254 -0.68800002
0.064575151 -0.11025254 -0.68800002
0.066066317 -0.11057304 -0.69
0.067369767 -0.11057304 -0.69
0.068673216 -0.11057304 -0.69
0.070078075 -0.11073329 -0.69099998
0.071590021 -0.11105379 -0.69300002
0.07289914 -0.11105379 -0.69300002
0.074315339 -0.11121405 -0.69400001
0.075626336 -0.11121405 -0.69400001
0.07693734 -0.11121405 -0.69400001
0.078361094 -0.1113743 -0.69499999
0.079673991 -0.1113743 -0.69499999
0.08098688 -0.1113743 -0.69499999
0.082299776 -0.1113743 -0.69499999
0.083853282 -0.11169481 -0.69700003
0.085169956 -0.11169481 -0.69700003
0.08648663 -0.11169481 -0.69700003
0.087803297 -0.11169481 -0.69700003
0.08924783 -0.11185505 -0.69800001
0.090566389 -0.11185505 -0.69800001
0.091884948 -0.11185505 -0.69800001
0.093470566 -0.11217555 -0.69999999
0.094792902 -0.11217555 -0.69999999
0.096115246 -0.11217555 -0.69999999
0.097437583 -0.11217555 -0.69999999
0.098901004 -0.11233579 -0.70099998
0.10051119 -0.1126563 -0.70300001
0.10183919 -0.1126563 -0.70300001
0.10331395 -0.11281655 -0.704
0.10464384 -0.11281655 -0.704
0.10597374 -0.11281655 -0.704
0.10730363 -0.11281655 -0.704
0.10863353 -0.11281655 -0.704
0.11011962 -0.1129768 -0.70499998
0.015386379 -0.11298407 -0.69700003
0.016703051 -0.11298407 -0.69700003
0.018019721 -0.11298407 -0.69700003
0.019336393 -0.11298407 -0.69700003
0.020653063 -0.11298407 -0.69700003
0.021969736 -0.11298407 -0.69700003
0.023219587 -0.11265986 -0.69499999
0.02453248 -0.11265986 -0.69499999
0.031896878 -0.11087676 -0.68400002
0.033140469 -0.11071467 -0.68300003
0.034430694 -0.11071467 -0.68300003
0.035668615 -0.11055256 -0.68199998
0.036956951 -0.11055256 -0.68199998
0.038301367 -0.11071467 -0.68300003
0.039591592 -0.11071467 -0.68300003
0.040881816 -0.11071467 -0.68300003
0.042172041 -0.11071467 -0.68300003
0.043525901 -0.11087676 -0.68400002
0.044818014 -0.11087676 -0.68400002
0.046244949 -0.11120096 -0.68599999
0.04754084 -0.11120096 -0.68599999
0.048907924 -0.11136306 -0.68699998
0.050205704 -0.11136306 -0.68699998
0.051578455 -0.11152516 -0.68800002
0.052878127 -0.11152516 -0.68800002
0.054177795 -0.11152516 -0.68800002
0.055477466 -0.11152516 -0.68800002
0.056777135 -0.11152516 -0.68800002
0.058245629 -0.11184936 -0.69
0.059549078 -0.11184936 -0.69
0.060852528 -0.11184936 -0.69
0.062155973 -0.11184936 -0.69
0.063459419 -0.11184936 -0.69
0.064762868 -0.11184936 -0.69
0.066162065 -0.11201146 -0.69099998
0.067467399 -0.11201146 -0.69099998
0.068971798 -0.11233567 -0.69300002
0.07028091 -0.11233567 -0.69300002
0.071590021 -0.11233567 -0.69300002
0.073004335 -0.11249777 -0.69400001
0.074315339 -0.11249777 -0.69400001
0.075626336 -0.11249777 -0.69400001
0.077048205 -0.11265986 -0.69499999
0.078361094 -0.11265986 -0.69499999
0.079903267 -0.11298407 -0.69700003
0.081219941 -0.11298407 -0.69700003
0.082536615 -0.11298407 -0.69700003
0.083853282 -0.11298407 -0.69700003
0.085292146 -0.11314617 -0.69800001
0.086610712 -0.11314617 -0.69800001
0.087929271 -0.11314617 -0.69800001
0.08924783 -0.11314617 -0.69800001
0.090825893 -0.11347037 -0.69999999
0.092148229 -0.11347037 -0.69999999
0.093470566 -0.11347037 -0.69999999
0.094792902 -0.11347037 -0.69999999
0.096252546 -0.11363246 -0.70099998
0.097576775 -0.11363246 -0.70099998
0.099183179 -0.11395667 -0.70300001
0.10051119 -0.11395667 -0.70300001
0.10198405 -0.11411877 -0.704
0.10331395 -0.11411877 -0.704
0.10464384 -0.11411877 -0.704
0.10612427 -0.11428086 -0.70499998
0.10745605 -0.11428086 -0.70499998
0.10878783 -0.11428086 -0.70499998
0.11011962 -0.11428086 -0.70499998
0.1114514 -0.11428086 -0.70499998
0.015342228 -0.11394543 -0.69499999
0.016655121 -0.11394543 -0.69499999
0.017968014 -0.11394543 -0.69499999
0.019336393 -0.11427334 -0.69700003
0.020653063 -0.11427334 -0.69700003
0.021906694 -0.11394543 -0.69499999
0.023219587 -0.11394543 -0.69499999
0.02453248 -0.11394543 -0.69499999
0.025845373 -0.11394543 -0.69499999
0.029569779 -0.11312568 -0.69
0.030738994 -0.11263383 -0.68699998
0.031896878 -0.11214198 -0.68400002
0.033140469 -0.11197804 -0.68300003
0.034430694 -0.11197804 -0.68300003
0.035720918 -0.11197804 -0.68300003
0.037011143 -0.11197804 -0.68300003
0.038301367 -0.11197804 -0.68300003
0.039591592 -0.11197804 -0.68300003
0.040941674 -0.11214198 -0.68400002
0.042357273 -0.11246988 -0.68599999
0.043653168 -0.11246988 -0.68599999
0.044949058 -0.11246988 -0.68599999
0.046312362 -0.11263383 -0.68699998
0.047610141 -0.11263383 -0.68699998
0.048979115 -0.11279779 -0.68800002
0.050278787 -0.11279779 -0.68800002
0.051578455 -0.11279779 -0.68800002
0.052878127 -0.11279779 -0.68800002
0.054335289 -0.11312568 -0.69
0.055638734 -0.11312568 -0.69
0.056942184 -0.11312568 -0.69
0.058330044 -0.11328963 -0.69099998
0.059635378 -0.11328963 -0.69099998
0.060940716 -0.11328963 -0.69099998
0.062246054 -0.11328963 -0.69099998
0.063551389 -0.11328963 -0.69099998
0.065044448 -0.11361754 -0.69300002
0.066353567 -0.11361754 -0.69300002
0.067662679 -0.11361754 -0.69300002
0.069071323 -0.11378148 -0.69400001
0.070382327 -0.11378148 -0.69400001
0.071693331 -0.11378148 -0.69400001
0.073109522 -0.11394543 -0.69499999
0.074422419 -0.11394543 -0.69499999
0.075735308 -0.11394543 -0.69499999
0.077269927 -0.11427334 -0.69700003
0.078586601 -0.11427334 -0.69700003
0.080017909 -0.11443729 -0.69800001
0.081336468 -0.11443729 -0.69800001
0.082655028 -0.11443729 -0.69800001
0.083973587 -0.11443729 -0.69800001
0.085292146 -0.11443729 -0.69800001
0.086610712 -0.11443729 -0.69800001
0.088181213 -0.11476518 -0.69999999
0.089503549 -0.11476518 -0.69999999
0.090825893 -0.11476518 -0.69999999
0.092279866 -0.11492913 -0.70099998
0.093604095 -0.11492913 -0.70099998
0.094928324 -0.11492913 -0.70099998
0.096252546 -0.11492913 -0.70099998
0.097855173 -0.11525704 -0.70300001
0.099324264 -0.11542099 -0.704
0.10065416 -0.11542099 -0.704
0.10198405 -0.11542099 -0.704
0.1034607 -0.11558493 -0.70499998
0.10479248 -0.11558493 -0.70499998
0.10612427 -0.11558493 -0.70499998
0.10745605 -0.11558493 -0.70499998
0.10878783 -0.11558493 -0.70499998
0.11011962 -0.11558493 -0.70499998
0.11176758 -0.11591284 -0.70700002
0.015342228 -0.115231 -0.69499999
0.016655121 -0.115231 -0.69499999
0.017968014 -0.115231 -0.69499999
0.019280907 -0.115231 -0.69499999
0.0205938 -0.115231 -0.69499999
0.021906694 -0.115231 -0.69499999
0.023186177 -0.1150652 -0.69400001
0.024497181 -0.1150652 -0.69400001
0.025770999 -0.1148994 -0.69300002
0.027001958 -0.1145678 -0.69099998
0.028266331 -0.114402 -0.69
0.029441213 -0.1139046 -0.68699998
0.030738994 -0.1139046 -0.68699998
0.031990141 -0.11373881 -0.68599999
0.033286035 -0.11373881 -0.68599999
0.034481104 -0.11340721 -0.68400002
0.035773218 -0.11340721 -0.68400002
0.037065331 -0.11340721 -0.68400002
0.038357444 -0.11340721 -0.68400002
0.039765492 -0.11373881 -0.68599999
0.041061383 -0.11373881 -0.68599999
0.042357273 -0.11373881 -0.68599999
0.043716799 -0.1139046 -0.68699998
0.045014583 -0.1139046 -0.68699998
0.046312362 -0.1139046 -0.68699998
0.047679447 -0.11407041 -0.68800002
0.048979115 -0.11407041 -0.68800002
0.050424945 -0.114402 -0.69
0.05172839 -0.114402 -0.69
0.053031839 -0.114402 -0.69
0.054414034 -0.1145678 -0.69099998
0.055719368 -0.1145678 -0.69099998
0.057024706 -0.1145678 -0.69099998
0.058498874 -0.1148994 -0.69300002
0.05980799 -0.1148994 -0.69300002
0.061117105 -0.1148994 -0.69300002
0.062426221 -0.1148994 -0.69300002
0.063735336 -0.1148994 -0.69300002
0.065044448 -0.1148994 -0.69300002
0.066353567 -0.1148994 -0.69300002
0.067760319 -0.1150652 -0.69400001
0.069071323 -0.1150652 -0.69400001
0.070483737 -0.115231 -0.69499999
0.071796633 -0.115231 -0.69499999
0.073319912 -0.11556261 -0.69700003
0.074636586 -0.11556261 -0.69700003
0.07595326 -0.11556261 -0.69700003
0.077380791 -0.11572841 -0.69800001
0.07869935 -0.11572841 -0.69800001
0.080017909 -0.11572841 -0.69800001
0.081336468 -0.11572841 -0.69800001
0.082655028 -0.11572841 -0.69800001
0.084214196 -0.11606 -0.69999999
0.08553654 -0.11606 -0.69999999
0.086858876 -0.11606 -0.69999999
0.088181213 -0.11606 -0.69999999
0.089631408 -0.1162258 -0.70099998
0.090955637 -0.1162258 -0.70099998
0.092543155 -0.1165574 -0.70300001
0.093871154 -0.1165574 -0.70300001
0.09519916 -0.1165574 -0.70300001
0.096527167 -0.1165574 -0.70300001
0.097994372 -0.1167232 -0.704
0.099324264 -0.1167232 -0.704
0.10065416 -0.1167232 -0.704
0.10212892 -0.116889 -0.70499998
0.1034607 -0.116889 -0.70499998
0.10479248 -0.116889 -0.70499998
0.10612427 -0.116889 -0.70499998
0.10745605 -0.116889 -0.70499998
0.10909645 -0.11722061 -0.70700002
0.11043201 -0.11722061 -0.70700002
0.11176758 -0.11722061 -0.70700002
0.015342228 -0.11651658 -0.69499999
0.016655121 -0.11651658 -0.69499999
0.017942162 -0.11634892 -0.69400001
0.019253166 -0.11634892 -0.69400001
0.020564169 -0.11634892 -0.69400001
0.021875173 -0.11634892 -0.69400001
0.023186177 -0.11634892 -0.69400001
0.024461884 -0.11618128 -0.69300002
0.025696622 -0.11584597 -0.69099998
0.026962884 -0.11567833 -0.69
0.028184401 -0.11534303 -0.68800002
0.029484071 -0.11534303 -0.68800002
0.030738994 -0.11517537 -0.68699998
0.032036774 -0.11517537 -0.68699998
0.033286035 -0.11500772 -0.68599999
0.034581926 -0.11500772 -0.68599999
0.035877816 -0.11500772 -0.68599999
0.037173707 -0.11500772 -0.68599999
0.038469601 -0.11500772 -0.68599999
0.039823458 -0.11517537 -0.68699998
0.041121241 -0.11517537 -0.68699998
0.04241902 -0.11517537 -0.68699998
0.043716799 -0.11517537 -0.68699998
0.045080107 -0.11534303 -0.68800002
0.046379779 -0.11534303 -0.68800002
0.04781805 -0.11567833 -0.69
0.049121495 -0.11567833 -0.69
0.050498024 -0.11584597 -0.69099998
0.051803358 -0.11584597 -0.69099998
0.053108696 -0.11584597 -0.69099998
0.054414034 -0.11584597 -0.69099998
0.055880643 -0.11618128 -0.69300002
0.057189759 -0.11618128 -0.69300002
0.058498874 -0.11618128 -0.69300002
0.05980799 -0.11618128 -0.69300002
0.061117105 -0.11618128 -0.69300002
0.062426221 -0.11618128 -0.69300002
0.063827306 -0.11634892 -0.69400001
0.06513831 -0.11634892 -0.69400001
0.066449314 -0.11634892 -0.69400001
0.067760319 -0.11634892 -0.69400001
0.069170848 -0.11651658 -0.69499999
0.070686571 -0.11685188 -0.69700003
0.072003245 -0.11685188 -0.69700003
0.073425107 -0.11701953 -0.69800001
0.074743666 -0.11701953 -0.69800001
0.076062225 -0.11701953 -0.69800001
0.077380791 -0.11701953 -0.69800001
0.078924842 -0.11735482 -0.69999999
0.080247186 -0.11735482 -0.69999999
0.081569523 -0.11735482 -0.69999999
0.082891859 -0.11735482 -0.69999999
0.084214196 -0.11735482 -0.69999999
0.08553654 -0.11735482 -0.69999999
0.086982958 -0.11752247 -0.70099998
0.088307187 -0.11752247 -0.70099998
0.089887142 -0.11785778 -0.70300001
0.091215149 -0.11785778 -0.70300001
0.092543155 -0.11785778 -0.70300001
0.094004683 -0.11802542 -0.704
0.095334582 -0.11802542 -0.704
0.096664473 -0.11802542 -0.704
0.097994372 -0.11802542 -0.704
0.099465348 -0.11819307 -0.70499998
0.10079713 -0.11819307 -0.70499998
0.10212892 -0.11819307 -0.70499998
0.10375421 -0.11852837 -0.70700002
0.10508977 -0.11852837 -0.70700002
0.10642533 -0.11852837 -0.70700002
0.10776089 -0.11852837 -0.70700002
0.10909645 -0.11852837 -0.70700002
0.11043201 -0.11852837 -0.70700002
0.11192566 -0.11869602 -0.708
0.015342228 -0.11780214 -0.69499999
0.016631158 -0.11763264 -0.69400001
0.017916309 -0.11746315 -0.69300002
0.019225424 -0.11746315 -0.69300002
0.020534538 -0.11746315 -0.69300002
0.021843653 -0.11746315 -0.69300002
0.023152769 -0.11746315 -0.69300002
0.024391286 -0.11712414 -0.69099998
0.025696622 -0.11712414 -0.69099998
0.026962884 -0.11695465 -0.69
0.028184401 -0.11661565 -0.68800002
0.029484071 -0.11661565 -0.68800002
0.030783741 -0.11661565 -0.68800002
0.032083411 -0.11661565 -0.68800002
0.033334557 -0.11644614 -0.68699998
0.034632336 -0.11644614 -0.68699998
0.035930116 -0.11644614 -0.68699998
0.037227899 -0.11644614 -0.68699998
0.038525678 -0.11644614 -0.68699998
0.039823458 -0.11644614 -0.68699998
0.041181099 -0.11661565 -0.68800002
0.042480767 -0.11661565 -0.68800002
0.043780439 -0.11661565 -0.68800002
0.045080107 -0.11661565 -0.68800002
0.046514601 -0.11695465 -0.69
0.04781805 -0.11695465 -0.69
0.049192686 -0.11712414 -0.69099998
0.050498024 -0.11712414 -0.69099998
0.051953301 -0.11746315 -0.69300002
0.053262413 -0.11746315 -0.69300002
0.054571528 -0.11746315 -0.69300002
0.055880643 -0.11746315 -0.69300002
0.057189759 -0.11746315 -0.69300002
0.058498874 -0.11746315 -0.69300002
0.05989429 -0.11763264 -0.69400001
0.061205294 -0.11763264 -0.69400001
0.062516302 -0.11763264 -0.69400001
0.063827306 -0.11763264 -0.69400001
0.065232165 -0.11780214 -0.69499999
0.066545062 -0.11780214 -0.69499999
0.068053231 -0.11814114 -0.69700003
0.06946943 -0.11831065 -0.69800001
0.070787989 -0.11831065 -0.69800001
0.072106548 -0.11831065 -0.69800001
0.073425107 -0.11831065 -0.69800001
0.074743666 -0.11831065 -0.69800001
0.076280169 -0.11864964 -0.69999999
0.077602506 -0.11864964 -0.69999999
0.078924842 -0.11864964 -0.69999999
0.080247186 -0.11864964 -0.69999999
0.08168605 -0.11881913 -0.70099998
0.083010279 -0.11881913 -0.70099998
0.0843345 -0.11881913 -0.70099998
0.085658729 -0.11881913 -0.70099998
0.087231129 -0.11915814 -0.70300001
0.088559136 -0.11915814 -0.70300001
0.089887142 -0.11915814 -0.70300001
0.091344893 -0.11932763 -0.704
0.092674792 -0.11932763 -0.704
0.094004683 -0.11932763 -0.704
0.095334582 -0.11932763 -0.704
0.09680178 -0.11949714 -0.70499998
0.098133564 -0.11949714 -0.70499998
0.099465348 -0.11949714 -0.70499998
0.10079713 -0.11949714 -0.70499998
0.10241865 -0.11983614 -0.70700002
0.10375421 -0.11983614 -0.70700002
0.10523841 -0.12000564 -0.708
0.10657586 -0.12000564 -0.708
0.10791332 -0.12000564 -0.708
0.10925076 -0.12000564 -0.708
0.11058822 -0.12000564 -0.708
0.11239993 -0.12051414 -0.71100003
0.016607193 -0.11874501 -0.69300002
0.017916309 -0.11874501 -0.69300002
0.019225424 -0.11874501 -0.69300002
0.020534538 -0.11874501 -0.69300002
0.021843653 -0.11874501 -0.69300002
0.023085948 -0.11840231 -0.69099998
0.024391286 -0.11840231 -0.69099998
0.025659434 -0.11823097 -0.69
0.026962884 -0.11823097 -0.69
0.028184401 -0.11788827 -0.68800002
0.029484071 -0.11788827 -0.68800002
0.030783741 -0.11788827 -0.68800002
0.032083411 -0.11788827 -0.68800002
0.033383079 -0.11788827 -0.68800002
0.034632336 -0.11771692 -0.68699998
0.035930116 -0.11771692 -0.68699998
0.037282087 -0.11788827 -0.68800002
0.038581759 -0.11788827 -0.68800002
0.039881427 -0.11788827 -0.68800002
0.041181099 -0.11788827 -0.68800002
0.042480767 -0.11788827 -0.68800002
0.043907706 -0.11823097 -0.69
0.045211151 -0.11823097 -0.69
0.046582013 -0.11840231 -0.69099998
0.047887348 -0.11840231 -0.69099998
0.04933507 -0.11874501 -0.69300002
0.050644185 -0.11874501 -0.69300002
0.051953301 -0.11874501 -0.69300002
0.053262413 -0.11874501 -0.69300002
0.054650273 -0.11891636 -0.69400001
0.055961277 -0.11891636 -0.69400001
0.057272281 -0.11891636 -0.69400001
0.058583286 -0.11891636 -0.69400001
0.059980594 -0.11908771 -0.69499999
0.061293487 -0.11908771 -0.69499999
0.062606379 -0.11908771 -0.69499999
0.064103216 -0.11943042 -0.69700003
0.06541989 -0.11943042 -0.69700003
0.066832304 -0.11960176 -0.69800001
0.068150863 -0.11960176 -0.69800001
0.06946943 -0.11960176 -0.69800001
0.070990816 -0.11994445 -0.69999999
0.072313152 -0.11994445 -0.69999999
0.073635489 -0.11994445 -0.69999999
0.074957833 -0.11994445 -0.69999999
0.076280169 -0.11994445 -0.69999999
0.077602506 -0.11994445 -0.69999999
0.079037592 -0.1201158 -0.70099998
0.080361821 -0.1201158 -0.70099998
0.081919104 -0.12045851 -0.70300001
0.08324711 -0.12045851 -0.70300001
0.084575117 -0.12045851 -0.70300001
0.085903123 -0.12045851 -0.70300001
0.087355211 -0.12062985 -0.704
0.08868511 -0.12062985 -0.704
0.090015002 -0.12062985 -0.704
0.091344893 -0.12062985 -0.704
0.092806429 -0.1208012 -0.70499998
0.094138213 -0.1208012 -0.70499998
0.095469996 -0.1208012 -0.70499998
0.09680178 -0.1208012 -0.70499998
0.098411962 -0.12114391 -0.70700002
0.099747524 -0.12114391 -0.70700002
0.10122605 -0.12131526 -0.708
0.10256351 -0.12131526 -0.708
0.10419446 -0.12165795 -0.70999998
0.10553569 -0.12165795 -0.70999998
0.10687692 -0.12165795 -0.70999998
0.10821815 -0.12165795 -0.70999998
0.10955938 -0.12165795 -0.70999998
0.11105681 -0.1218293 -0.71100003
0.016607193 -0.12002689 -0.69300002
0.017864602 -0.11968049 -0.69099998
0.019169938 -0.11968049 -0.69099998
0.020475274 -0.11968049 -0.69099998
0.021780612 -0.11968049 -0.69099998
0.023085948 -0.11968049 -0.69099998
0.024391286 -0.11968049 -0.69099998
0.025659434 -0.11950728 -0.69
0.026962884 -0.11950728 -0.69
0.028266331 -0.11950728 -0.69
0.029484071 -0.11916089 -0.68800002
0.030783741 -0.11916089 -0.68800002
0.032083411 -0.11916089 -0.68800002
0.033383079 -0.11916089 -0.68800002
0.034682751 -0.11916089 -0.68800002
0.035982419 -0.11916089 -0.68800002
0.037282087 -0.11916089 -0.68800002
0.038581759 -0.11916089 -0.68800002
0.039881427 -0.11916089 -0.68800002
0.041300807 -0.11950728 -0.69
0.042604256 -0.11950728 -0.69
0.043971337 -0.11968049 -0.69099998
0.045276675 -0.11968049 -0.69099998
0.046582013 -0.11968049 -0.69099998
0.048025955 -0.12002689 -0.69300002
0.04933507 -0.12002689 -0.69300002
0.050644185 -0.12002689 -0.69300002
0.052028269 -0.12020008 -0.69400001
0.053339269 -0.12020008 -0.69400001
0.054650273 -0.12020008 -0.69400001
0.055961277 -0.12020008 -0.69400001
0.057272281 -0.12020008 -0.69400001
0.058667701 -0.12037328 -0.69499999
0.060153201 -0.12071969 -0.69700003
0.061469872 -0.12071969 -0.69700003
0.062786542 -0.12071969 -0.69700003
0.064103216 -0.12071969 -0.69700003
0.065513745 -0.12089288 -0.69800001
0.066832304 -0.12089288 -0.69800001
0.068346135 -0.12123927 -0.69999999
0.069668479 -0.12123927 -0.69999999
0.070990816 -0.12123927 -0.69999999
0.072313152 -0.12123927 -0.69999999
0.073635489 -0.12123927 -0.69999999
0.075064912 -0.12141247 -0.70099998
0.076389141 -0.12141247 -0.70099998
0.077935092 -0.12175888 -0.70300001
0.079263099 -0.12175888 -0.70300001
0.080591105 -0.12175888 -0.70300001
0.082035631 -0.12193207 -0.704
0.08336553 -0.12193207 -0.704
0.084695421 -0.12193207 -0.704
0.08602532 -0.12193207 -0.704
0.087355211 -0.12193207 -0.704
0.08868511 -0.12193207 -0.704
0.090142861 -0.12210527 -0.70499998
0.091474645 -0.12210527 -0.70499998
0.092806429 -0.12210527 -0.70499998
0.094405279 -0.12245167 -0.70700002
0.09574084 -0.12245167 -0.70700002
0.097213708 -0.12262487 -0.708
0.098551154 -0.12262487 -0.708
0.099888608 -0.12262487 -0.708
0.101512 -0.12297126 -0.70999998
0.10285323 -0.12297126 -0.70999998
0.10419446 -0.12297126 -0.70999998
0.10553569 -0.12297126 -0.70999998
0.10687692 -0.12297126 -0.70999998
0.10821815 -0.12297126 -0.70999998
0.1097137 -0.12314447 -0.71100003
0.1113692 -0.12349086 -0.713
0.016559264 -0.12095866 -0.69099998
0.017864602 -0.12095866 -0.69099998
0.019169938 -0.12095866 -0.69099998
0.020475274 -0.12095866 -0.69099998
0.021780612 -0.12095866 -0.69099998
0.023085948 -0.12095866 -0.69099998
0.024391286 -0.12095866 -0.69099998
0.025696622 -0.12095866 -0.69099998
0.027001958 -0.12095866 -0.69099998
0.028307296 -0.12095866 -0.69099998
0.029569779 -0.1207836 -0.69
0.030873226 -0.1207836 -0.69
0.032176673 -0.1207836 -0.69
0.033480123 -0.1207836 -0.69
0.034783568 -0.1207836 -0.69
0.036087018 -0.1207836 -0.69
0.037390467 -0.1207836 -0.69
0.038693912 -0.1207836 -0.69
0.039997362 -0.1207836 -0.69
0.041360665 -0.12095866 -0.69099998
0.042666003 -0.12095866 -0.69099998
0.044098608 -0.12130876 -0.69300002
0.045407724 -0.12130876 -0.69300002
0.046716839 -0.12130876 -0.69300002
0.048025955 -0.12130876 -0.69300002
0.04940626 -0.1214838 -0.69400001
0.050717264 -0.1214838 -0.69400001
0.052028269 -0.1214838 -0.69400001
0.053416129 -0.12165885 -0.69499999
0.054729022 -0.12165885 -0.69499999
0.056041915 -0.12165885 -0.69499999
0.057354808 -0.12165885 -0.69499999
0.058836531 -0.12200896 -0.69700003
0.060153201 -0.12200896 -0.69700003
0.061558064 -0.122184 -0.69800001
0.062876627 -0.122184 -0.69800001
0.064195186 -0.122184 -0.69800001
0.065513745 -0.122184 -0.69800001
0.067023799 -0.1225341 -0.69999999
0.068346135 -0.1225341 -0.69999999
0.069668479 -0.1225341 -0.69999999
0.071092226 -0.12270914 -0.70099998
0.072416455 -0.12270914 -0.70099998
0.073740683 -0.12270914 -0.70099998
0.075279079 -0.12305924 -0.70300001
0.076607086 -0.12305924 -0.70300001
0.077935092 -0.12305924 -0.70300001
0.079375848 -0.12323429 -0.704
0.08070574 -0.12323429 -0.704
0.082035631 -0.12323429 -0.704
0.08336553 -0.12323429 -0.704
0.084815726 -0.12340934 -0.70499998
0.08614751 -0.12340934 -0.70499998
0.087479293 -0.12340934 -0.70499998
0.088811077 -0.12340934 -0.70499998
0.090142861 -0.12340934 -0.70499998
0.091734156 -0.12375944 -0.70700002
0.093069717 -0.12375944 -0.70700002
0.0945388 -0.12393449 -0.708
0.095876254 -0.12393449 -0.708
0.097488314 -0.12428458 -0.70999998
0.098829545 -0.12428458 -0.70999998
0.10017078 -0.12428458 -0.70999998
0.101512 -0.12428458 -0.70999998
0.10285323 -0.12428458 -0.70999998
0.10434122 -0.12445963 -0.71100003
0.10568434 -0.12445963 -0.71100003
0.10702746 -0.12445963 -0.71100003
0.10837057 -0.12445963 -0.71100003
0.11002231 -0.12480973 -0.713
0.1118378 -0.12533487 -0.71600002
0.016559264 -0.12223683 -0.69099998
0.017864602 -0.12223683 -0.69099998
0.019169938 -0.12223683 -0.69099998
0.020475274 -0.12223683 -0.69099998
0.021780612 -0.12223683 -0.69099998
0.023085948 -0.12223683 -0.69099998
0.024391286 -0.12223683 -0.69099998
0.025696622 -0.12223683 -0.69099998
0.027001958 -0.12223683 -0.69099998
0.028307296 -0.12223683 -0.69099998
0.029612632 -0.12223683 -0.69099998
0.03091797 -0.12223683 -0.69099998
0.032223307 -0.12223683 -0.69099998
0.033528645 -0.12223683 -0.69099998
0.034833979 -0.12223683 -0.69099998
0.036139317 -0.12223683 -0.69099998
0.037444655 -0.12223683 -0.69099998
0.038749989 -0.12223683 -0.69099998
0.040055327 -0.12223683 -0.69099998
0.041480377 -0.12259062 -0.69300002
0.042789493 -0.12259062 -0.69300002
0.044098608 -0.12259062 -0.69300002
0.045407724 -0.12259062 -0.69300002
0.046784252 -0.12276752 -0.69400001
0.048095256 -0.12276752 -0.69400001
0.049477447 -0.12294442 -0.69499999
0.05079034 -0.12294442 -0.69499999
0.052253176 -0.12329822 -0.69700003
0.053569846 -0.12329822 -0.69700003
0.054965261 -0.12347512 -0.69800001
0.056283824 -0.12347512 -0.69800001
0.057602383 -0.12347512 -0.69800001
0.058920942 -0.12347512 -0.69800001
0.060239505 -0.12347512 -0.69800001
0.061558064 -0.12347512 -0.69800001
0.062876627 -0.12347512 -0.69800001
0.064379126 -0.12382891 -0.69999999
0.065701462 -0.12382891 -0.69999999
0.067023799 -0.12382891 -0.69999999
0.068443775 -0.12400581 -0.70099998
0.069967054 -0.12435961 -0.70300001
0.07129506 -0.12435961 -0.70300001
0.072623067 -0.12435961 -0.70300001
0.073951073 -0.12435961 -0.70300001
0.075386159 -0.12453651 -0.704
0.076716058 -0.12453651 -0.704
0.078045949 -0.12453651 -0.704
0.07948859 -0.1247134 -0.70499998
0.080820374 -0.1247134 -0.70499998
0.082152158 -0.1247134 -0.70499998
0.083483942 -0.1247134 -0.70499998
0.084815726 -0.1247134 -0.70499998
0.08614751 -0.1247134 -0.70499998
0.087727465 -0.1250672 -0.70700002
0.089063026 -0.1250672 -0.70700002
0.090398587 -0.1250672 -0.70700002
0.0918639 -0.1252441 -0.708
0.093201354 -0.1252441 -0.708
0.094805859 -0.12559789 -0.70999998
0.09614709 -0.12559789 -0.70999998
0.097488314 -0.12559789 -0.70999998
0.098968752 -0.1257748 -0.71100003
0.10031187 -0.1257748 -0.71100003
0.10165498 -0.1257748 -0.71100003
0.1029981 -0.1257748 -0.71100003
0.10434122 -0.1257748 -0.71100003
0.10598162 -0.1261286 -0.713
0.10732851 -0.1261286 -0.713
0.10882783 -0.12630549 -0.71399999
0.016559264 -0.12351499 -0.69099998
0.017864602 -0.12351499 -0.69099998
0.019169938 -0.12351499 -0.69099998
