# .PCD v0.7 - Point Cloud Data file format
VERSION 0.7
FIELDS x y z
SIZE 4 4 4
TYPE F F F
COUNT 1 1 1
WIDTH 1321
HEIGHT 1
VIEWPOINT 0 0 0 1 0 0 0
POINTS 1321
DATA ascii
-0.34650895 0.051179271 -0.74575001
-0.342069 0.052090015 -0.74614298
-0.33720461 0.05253822 -0.74571431
-0.33297718 0.052743141 -0.74774992
-0.38519493 0.057957616 -0.74900001
-0.38200617 0.057880234 -0.74800009
-0.37731832 0.057776473 -0.74666667
-0.37294486 0.057410497 -0.74540001
-0.36848059 0.055641972 -0.74500006
-0.33635318 0.056979392 -0.745
-0.33214533 0.057817973 -0.74719995
0.3195039 0.057726376 -0.74600005
0.32145578 0.059482824 -0.74620008
-0.38209373 0.06245425 -0.74850005
-0.37771106 0.06253437 -0.74744451
-0.37301955 0.062560327 -0.74575001
-0.36806166 0.063709199 -0.74550009
-0.36381692 0.06366647 -0.74500006
-0.33516875 0.060991637 -0.74500006
-0.33198768 0.062457316 -0.74776924
0.32286704 0.062341835 -0.7476154
0.32693908 0.063142136 -0.74557149
-0.38117602 0.065352902 -0.74900001
-0.37715715 0.066697508 -0.74900001
-0.37242803 0.067320362 -0.74793339
-0.36723727 0.067194618 -0.74753338
-0.36237037 0.067340709 -0.74663639
-0.35786203 0.068592332 -0.74620003
-0.35315716 0.069016136 -0.74500006
-0.33098665 0.067029282 -0.74820006
-0.32893056 0.069386698 -0.74900001
0.32413787 0.065352902 -0.74900001
0.3276183 0.065879308 -0.74842864
0.33235568 0.066118531 -0.74699998
0.33734968 0.06744694 -0.74676466
0.34193051 0.068140246 -0.74585718
0.34780151 0.069164358 -0.74660003
0.35238749 0.069016144 -0.74500006
0.35571864 0.069016136 -0.74500006
-0.3762641 0.072972298 -0.74900001
-0.37246847 0.072748184 -0.74899989
-0.36710992 0.072748184 -0.74899989
-0.36201555 0.072826236 -0.74790925
-0.35779414 0.072940595 -0.74750006
-0.35353285 0.072842866 -0.74650002
-0.33060795 0.072674669 -0.74825007
-0.32893056 0.073420495 -0.74900001
0.33924016 0.070668332 -0.74833339
0.34322909 0.071583293 -0.74785721
0.3474519 0.072317019 -0.74800003
0.35243103 0.071973369 -0.74792308
0.35728914 0.072626457 -0.74726671
0.36145931 0.073434189 -0.74640006
0.36535791 0.074565448 -0.74700004
0.37903693 0.073028386 -0.74500006
0.38255638 0.073050171 -0.74522227
0.38759819 0.073135972 -0.74609101
0.39088601 0.074465625 -0.74600005
-0.37669638 0.077931762 -0.74875003
-0.37249422 0.077982619 -0.74806666
-0.36734411 0.077878959 -0.74793333
-0.36228481 0.078121506 -0.74714291
-0.35753331 0.078058235 -0.74793333
-0.35384765 0.077185355 -0.74900001
-0.3302702 0.076109685 -0.74900001
-0.32893056 0.076109685 -0.74900001
0.35896817 0.076109685 -0.74900001
0.3632462 0.076899253 -0.74850005
0.36760169 0.077315249 -0.74671429
0.37245628 0.077531904 -0.74650013
0.37738314 0.077248253 -0.7470001
0.38231385 0.077300072 -0.74750006
0.38740274 0.077917963 -0.74699998
0.39261529 0.077892341 -0.74674994
0.39635652 0.077841304 -0.74625003
-0.38162255 0.083729073 -0.74900001
-0.37788454 0.082182214 -0.74754554
-0.37261078 0.082343593 -0.74580014
-0.36848062 0.08149869 -0.74500006
-0.35606879 0.081138492 -0.74580008
-0.35315144 0.081408665 -0.74675006
-0.34875998 0.081855334 -0.74500006
0.36801064 0.080479629 -0.74900001
0.37281102 0.081039876 -0.74900001
0.37772298 0.080815777 -0.74900001
0.38241166 0.080815777 -0.74900001
0.38710034 0.082496531 -0.74900001
0.39247984 0.082013145 -0.74833339
0.39706266 0.082499176 -0.74800009
-0.38519493 0.086866461 -0.74900001
-0.38250312 0.087380826 -0.74766672
-0.37772834 0.086627267 -0.74550003
-0.37247801 0.085065134 -0.74500006
0.39848718 0.085521862 -0.74900001
-0.38165158 0.09053617 -0.74600005
-0.17246011 -0.040461048 -0.74150002
-0.16695403 -0.040710729 -0.74120009
-0.16240305 -0.040433772 -0.74100006
-0.15787087 -0.041126166 -0.74150008
-0.1528357 -0.041027255 -0.74142867
-0.14726117 -0.040461048 -0.74150002
-0.14252326 -0.040433772 -0.74100006
-0.13589665 -0.040433768 -0.74100006
-0.13324602 -0.040433772 -0.74100006
-0.17206761 -0.039191481 -0.74266672
-0.16726708 -0.039156299 -0.74200004
-0.16217513 -0.039209072 -0.74300003
-0.15707245 -0.039261844 -0.74400002
-0.15241507 -0.039261844 -0.74400008
-0.14736046 -0.039156299 -0.74200004
-0.14217202 -0.038188465 -0.74262506
-0.13736123 -0.037325155 -0.74230784
-0.13265307 -0.03729634 -0.7421335
-0.12753929 -0.03718105 -0.74250001
-0.12256023 -0.036626488 -0.74250007
-0.11770226 -0.036605056 -0.7416001
-0.11304495 -0.036200888 -0.74150008
-0.10784408 -0.035556238 -0.74100012
-0.10276368 -0.035112824 -0.74100006
-0.12114397 -0.033919357 -0.74400002
-0.11675271 -0.033652235 -0.74400002
-0.11234331 -0.033205956 -0.74300003
-0.10739777 -0.032796867 -0.74280006
-0.10229644 -0.032512747 -0.74241674
-0.097608954 -0.032499619 -0.74211121
-0.092907302 -0.032480948 -0.74166673
-0.087354109 -0.032027606 -0.74144453
-0.082080863 -0.032346696 -0.7413637
-0.077359073 -0.032336127 -0.74140012
-0.072807766 -0.032592699 -0.74145466
-0.067935437 -0.032198902 -0.74130011
-0.062625445 -0.031692218 -0.74100012
-0.058365487 -0.031122115 -0.74100006
-0.38615176 -0.028936166 -0.74183339
-0.38216549 -0.0280637 -0.74225008
-0.37766096 -0.027975364 -0.74169236
-0.3727805 -0.027819186 -0.74162495
-0.36731985 -0.027807519 -0.74131256
-0.36278218 -0.027286947 -0.74122232
-0.35788763 -0.026466286 -0.74100012
-0.35258633 -0.026466286 -0.74100012
-0.34728506 -0.026466288 -0.74100012
-0.34291151 -0.026333263 -0.74100012
-0.33800781 -0.025801169 -0.74100006
-0.33270651 -0.025801169 -0.74100006
-0.32740527 -0.025801169 -0.74100006
-0.32210398 -0.025801169 -0.74100006
-0.31879067 -0.025801169 -0.74100006
-0.2856577 -0.025801169 -0.74100006
-0.2823444 -0.025801169 -0.74100006
-0.27240452 -0.027796524 -0.74100006
-0.095860958 -0.029912494 -0.74400002
-0.092534244 -0.029912494 -0.74400008
-0.087701023 -0.029852185 -0.74250001
-0.081977367 -0.02958104 -0.74240005
-0.077127576 -0.029204477 -0.74300003
-0.072334483 -0.028713668 -0.74325001
-0.067794874 -0.028524464 -0.74266666
-0.062481668 -0.028524462 -0.74266666
-0.057151433 -0.027848151 -0.74243754
-0.052472271 -0.027831793 -0.74200004
-0.04794085 -0.027349589 -0.74138474
-0.042732719 -0.026868841 -0.74110013
-0.037160382 -0.026466286 -0.74100012
-0.032521762 -0.026466288 -0.74100012
-0.027883148 -0.026466288 -0.74100012
-0.022979468 -0.026067216 -0.74100012
-0.017280595 -0.025801169 -0.74100006
-0.013967297 -0.025801169 -0.74100006
-0.37796611 -0.024570007 -0.74400002
-0.37264335 -0.024236102 -0.74400002
-0.36751783 -0.023942014 -0.74228579
-0.36235186 -0.023837944 -0.74200004
-0.35728359 -0.023853559 -0.74250001
-0.35256118 -0.023778489 -0.7431429
-0.34787029 -0.023959856 -0.74285722
-0.3425315 -0.023728646 -0.74157155
-0.33791241 -0.023844851 -0.74225008
-0.3321813 -0.02344314 -0.74220008
-0.32743955 -0.02286285 -0.74283332
-0.32236922 -0.022515601 -0.74237496
-0.31776837 -0.022815369 -0.74227285
-0.31377113 -0.023382327 -0.74166679
-0.30647206 -0.022202631 -0.74142867
-0.30236018 -0.021819673 -0.74133343
-0.29758561 -0.021810463 -0.74100012
-0.29258764 -0.022075653 -0.7415626
-0.28750002 -0.022675741 -0.74135727
-0.28253496 -0.022489848 -0.74150002
-0.27728242 -0.022021491 -0.74123091
-0.27209422 -0.022448665 -0.74160016
-0.2696346 -0.02185192 -0.74250007
-0.047506966 -0.024276463 -0.7432
-0.042533956 -0.023845751 -0.74225003
-0.037210528 -0.023837944 -0.74200004
-0.032388095 -0.023560921 -0.74228585
-0.027779641 -0.022975231 -0.74230784
-0.022619965 -0.022511477 -0.74225014
-0.017309746 -0.022511479 -0.74225014
-0.012453968 -0.022348294 -0.74192315
-0.0078253383 -0.021938931 -0.74127287
-0.0029245922 -0.021379331 -0.74144453
0.0026008766 -0.021822128 -0.74141681
0.0079105338 -0.0218387 -0.74200004
0.012550366 -0.021829486 -0.74166673
0.017009296 -0.021704935 -0.7415455
0.022494145 -0.021159161 -0.74150008
0.027780253 -0.021145346 -0.74100012
0.032418873 -0.020480227 -0.74100006
0.035732172 -0.020480227 -0.74100006
0.04964802 -0.020480227 -0.74100006
0.050973337 -0.020480227 -0.74100006
-0.30544379 -0.019227521 -0.74400002
-0.30145174 -0.019227523 -0.74400008
-0.29666007 -0.019175835 -0.74200004
-0.29479831 -0.019227521 -0.74400002
-0.28592706 -0.018782316 -0.74400008
-0.28222856 -0.018052392 -0.74374998
-0.27764079 -0.017990358 -0.74260002
-0.27306381 -0.018337106 -0.74400002
-0.26951531 -0.018559711 -0.74400002
-0.011362476 -0.019227523 -0.74400008
-0.0073560206 -0.019193064 -0.74266672
-0.0027105936 -0.018765084 -0.74333334
0.0016112885 -0.018880693 -0.74349999
0.018245261 -0.018893616 -0.74400002
0.022539649 -0.018533867 -0.74300003
0.028072251 -0.018308792 -0.74288893
0.032491788 -0.017858637 -0.74266672
0.037132207 -0.017854331 -0.74250007
0.042396881 -0.017835189 -0.74166673
0.047740445 -0.017181555 -0.74224991
0.052742731 -0.017364308 -0.74192876
0.057309095 -0.016988497 -0.74214303
0.062145211 -0.01689348 -0.74214303
0.067607522 -0.01650531 -0.74175012
0.072873875 -0.016496338 -0.74133343
0.077214658 -0.015691377 -0.74100012
0.082434513 -0.015735229 -0.74128586
0.087434016 -0.015826957 -0.74112511
0.092493102 -0.016229609 -0.74130011
0.097403601 -0.015831219 -0.74133343
0.10206694 -0.01583463 -0.74150008
0.10705625 -0.015735229 -0.74128586
0.11260067 -0.015159282 -0.74100006
0.11790195 -0.015159282 -0.74100006
0.12254056 -0.015159282 -0.74100006
0.12717918 -0.015159282 -0.74100006
0.1318178 -0.015159282 -0.74100006
0.072470665 -0.013885034 -0.74400002
0.077380516 -0.013591783 -0.74260008
0.082326457 -0.013196229 -0.74287498
0.087655552 -0.013198562 -0.74300003
0.092846014 -0.013847709 -0.74200004
0.097490892 -0.013847709 -0.74200004
0.10259004 -0.01358805 -0.74240005
0.10755213 -0.013194345 -0.74275005
0.11275264 -0.013181694 -0.74200004
0.11782137 -0.013280632 -0.74228585
0.12264251 -0.012858107 -0.74262506
0.12740803 -0.012519507 -0.74233341
0.1325103 -0.012638208 -0.7421819
0.13728191 -0.012257597 -0.74260002
0.14225957 -0.011756415 -0.74214298
0.14715821 -0.011841229 -0.74150008
0.15207624 -0.011738676 -0.74100012
0.15766153 -0.011168574 -0.74100006
0.16296281 -0.011168574 -0.74100006
0.16760141 -0.011168575 -0.74100006
0.17224005 -0.011168574 -0.74100006
0.1775413 -0.011168574 -0.74100006
0.18284258 -0.011168574 -0.74100006
0.18615589 -0.011168574 -0.74100006
0.1941078 -0.011168574 -0.74100006
0.19742109 -0.011168574 -0.74100006
0.20205972 -0.011168575 -0.74100006
0.14299697 -0.0098781697 -0.74400008
0.14789335 -0.0096004242 -0.74320006
0.15269336 -0.0091925515 -0.74262506
0.15776792 -0.0091789607 -0.74150008
0.16248295 -0.0091833873 -0.74183339
0.16738932 -0.0091970824 -0.74300003
0.17270491 -0.0091970824 -0.74300003
0.17797187 -0.0087944586 -0.74280006
0.18272018 -0.0083042458 -0.74275005
0.18723629 -0.0077201012 -0.7421335
0.19231483 -0.0078498004 -0.74175006
0.1976079 -0.0079872729 -0.74220002
0.2027486 -0.0078550242 -0.74231255
0.20734572 -0.007629768 -0.7420001
0.21238109 -0.0071889865 -0.74233341
0.21761791 -0.007519573 -0.74208343
0.22265403 -0.0077331653 -0.74182343
0.22775085 -0.0080367848 -0.74142861
0.23234221 -0.0076579726 -0.74157149
0.23734042 -0.007182112 -0.74150008
0.24236985 -0.0067370855 -0.74133343
0.24778321 -0.005847631 -0.74100006
0.25268695 -0.0063797249 -0.74100012
0.25706047 -0.006512749 -0.74100012
0.26196414 -0.0061136782 -0.74100012
0.26633769 -0.005847631 -0.74100006
0.22283804 -0.0045356839 -0.74400008
0.22760487 -0.0039597913 -0.74342859
0.23281817 -0.0045356839 -0.74400002
0.23747557 -0.0045356839 -0.74400008
0.24266636 -0.0045332457 -0.74360001
0.24761948 -0.0038591772 -0.74250001
0.25263986 -0.0035243323 -0.74212503
0.25751126 -0.0029860893 -0.74215388
0.26256123 -0.0024063066 -0.7421177
0.26753348 -0.0027127643 -0.74142867
0.27247056 -0.0018575274 -0.74146163
0.27748737 -0.0017241839 -0.74140012
0.28219929 -0.0017362511 -0.7413637
0.28763956 -0.0011919828 -0.7412501
0.29129788 -0.00097009912 -0.74100006
0.26874667 0.00080680213 -0.74400002
0.2725541 0.00080625992 -0.74349999
0.27665043 0.00080463331 -0.74200004
0.28256541 0.00080636836 -0.74360007
0.2875981 0.002655457 -0.7433846
0.29257336 0.0030250843 -0.74200004
0.28804159 0.0061492883 -0.74400002
0.29338279 0.0068783644 -0.74255562
0.29569364 0.0087908925 -0.74150002
0.29711431 0.012134693 -0.74240005
0.29816461 0.017117839 -0.74187511
0.29875672 0.022506999 -0.74228579
0.30071008 0.024315517 -0.74133337
0.30171001 0.027451571 -0.74216676
0.30336979 0.030994356 -0.74325001
0.30744767 0.031849191 -0.74192315
0.31280762 0.03278622 -0.74225008
0.31691307 0.033639021 -0.74150008
0.32067576 0.033394329 -0.74100006
0.31805226 0.036486469 -0.74300003
0.320445 0.035437442 -0.74200004
0.31911787 0.042763613 -0.74200004
0.32015708 0.042059176 -0.74133343
-0.35600981 0.048889175 -0.74400002
-0.3519707 0.048790611 -0.74250007
0.31883118 0.047382515 -0.74133337
-0.36208773 0.053861313 -0.74350005
-0.35734576 0.052034661 -0.74125016
-0.35270491 0.052034616 -0.74125004
-0.34821501 0.052619029 -0.74278581
-0.34336829 0.054231662 -0.74400002
0.31885478 0.052424565 -0.74271435
0.3213816 0.052690037 -0.74110013
0.32531437 0.054012984 -0.74100006
-0.37064734 0.058906339 -0.74400002
-0.36737758 0.057655625 -0.74366665
-0.36262181 0.057490092 -0.7421819
-0.35775509 0.057471603 -0.74100018
-0.35258633 0.057338573 -0.74100012
-0.34733698 0.057261165 -0.74152946
-0.34213862 0.057474844 -0.74277776
-0.33781749 0.058532398 -0.74350005
0.31924778 0.055962697 -0.74333334
0.32265559 0.057137012 -0.74207145
0.32749546 0.057373274 -0.74143749
0.33238429 0.057691157 -0.74125016
0.33702403 0.058688827 -0.7412501
0.3412182 0.059333932 -0.74100006
-0.37064734 0.060909774 -0.74400002
-0.36746448 0.061649598 -0.74371427
-0.36251378 0.06166254 -0.74233341
-0.35770717 0.062488064 -0.74121445
-0.3525863 0.062659532 -0.74100012
-0.34741759 0.062526509 -0.74100018
-0.3426013 0.061716989 -0.74122232
-0.33740312 0.061467059 -0.74177784
-0.33271286 0.063409202 -0.7420001
0.32818401 0.06149482 -0.74300003
0.33274996 0.062329829 -0.74340004
0.33761296 0.062379375 -0.74240011
0.34237507 0.062846102 -0.74207151
0.34709528 0.063027136 -0.74166679
0.352642 0.063353725 -0.74133343
0.35790497 0.064011566 -0.7412501
0.36215827 0.064122789 -0.74100012
0.36706191 0.064654879 -0.74100006
0.372805 0.064211473 -0.74100012
0.37766448 0.064654879 -0.74100006
0.38097778 0.064654879 -0.74100006
-0.35652843 0.066497117 -0.74300003
-0.35195059 0.067013912 -0.74185729
-0.34851572 0.067885451 -0.74100012
-0.33116311 0.067406192 -0.7420001
0.34293234 0.066586167 -0.74400002
0.3474994 0.066839568 -0.74310005
0.35272127 0.066695645 -0.74150008
0.35786873 0.067407273 -0.74200004
0.36229628 0.067381419 -0.74172735
0.36730993 0.067361072 -0.74150008
0.37269819 0.067376494 -0.74166673
0.37734103 0.067376509 -0.74166673
0.38240772 0.067272626 -0.74157149
0.38720235 0.068248495 -0.74150008
0.392243 0.069089003 -0.74100012
-0.35600981 0.070259124 -0.74400002
-0.3519707 0.070451379 -0.74250007
-0.3479867 0.072786018 -0.74250007
-0.33072269 0.070782587 -0.74250007
-0.32983774 0.072734311 -0.74200004
0.35989857 0.070259124 -0.74400002
0.36280671 0.071193978 -0.74260008
0.36747232 0.072118208 -0.74249995
0.37278435 0.072118208 -0.74250007
0.37737265 0.072081424 -0.74288893
0.38218755 0.070926934 -0.74400002
0.38811335 0.070586257 -0.74342859
0.3927699 0.07232938 -0.74271429
0.39582705 0.074265987 -0.74400002
-0.37197804 0.084950961 -0.74400002
-0.3670246 0.083280079 -0.74340004
-0.36235484 0.08271452 -0.74278569
-0.35750204 0.083184272 -0.74200016
-0.35263404 0.084112316 -0.74250007
-0.34744051 0.084140874 -0.74275005
-0.34443593 0.084722593 -0.74200004
-0.37641367 0.088512622 -0.74400008
-0.37254083 0.087370157 -0.74300003
-0.3673068 0.087967537 -0.74128586
-0.36285755 0.086271212 -0.74100006
-0.35987559 0.085938647 -0.74100006
-0.35192367 0.085938655 -0.74100006
-0.34763724 0.086025625 -0.74175006
-0.34397176 0.085938647 -0.74100006
-0.37777841 0.092388131 -0.74327272
-0.3729032 0.091931738 -0.74213338
-0.36782748 0.092589833 -0.74100012
-0.37628651 0.095378838 -0.74200004
-0.37169617 0.096223727 -0.74166673
-0.36727524 0.097134799 -0.74100012
-0.36385155 0.099241011 -0.74100006
-0.36517686 0.10123636 -0.74100006
-0.36352021 0.1025666 -0.74100006
-0.16525632 -0.045445971 -0.73600006
-0.16393995 -0.045445971 -0.73600006
-0.17238165 -0.041814081 -0.73720002
-0.16748129 -0.042865813 -0.73710006
-0.16246498 -0.042765975 -0.73745459
-0.15757008 -0.043522239 -0.73700005
-0.15240119 -0.043385487 -0.73750001
-0.14784694 -0.042738855 -0.73744446
-0.14241454 -0.04219941 -0.73700005
-0.13789289 -0.040903416 -0.73750007
-0.13311557 -0.041734587 -0.73714292
-0.12770471 -0.040994149 -0.73742861
-0.12299654 -0.040628638 -0.73650002
-0.11720859 -0.040160932 -0.73600006
-0.11260127 -0.040160932 -0.73600006
-0.12148785 -0.038945213 -0.73800004
-0.11736784 -0.038892444 -0.73700005
-0.11205337 -0.038393449 -0.73760003
-0.10753473 -0.037752315 -0.73737502
-0.10262468 -0.03701539 -0.73728579
-0.097704828 -0.036285825 -0.73783338
-0.092396013 -0.036273673 -0.7375834
-0.087610267 -0.036865979 -0.73616672
-0.083421603 -0.036637574 -0.73600006
-0.077437371 -0.036249638 -0.73710006
-0.072774485 -0.036146615 -0.73745459
-0.067733824 -0.035812318 -0.73716676
-0.062578976 -0.036197152 -0.73600006
-0.058629848 -0.036197152 -0.73600006
-0.3864482 -0.032951802 -0.73733342
-0.38237873 -0.031502366 -0.73657149
-0.37746227 -0.031892132 -0.73729998
-0.37261552 -0.032291137 -0.73736364
-0.36754495 -0.032289971 -0.73733342
-0.36242372 -0.031934783 -0.73675001
-0.35789824 -0.031252928 -0.73625004
-0.35283995 -0.030912112 -0.73600006
-0.34757444 -0.030912112 -0.73600006
-0.34296712 -0.030912112 -0.73600006
-0.30281764 -0.030912112 -0.73600006
-0.29755211 -0.030912112 -0.73600006
-0.293603 -0.030912112 -0.73600006
-0.087434523 -0.034395333 -0.73785716
-0.082822837 -0.034615308 -0.73750001
-0.079800144 -0.034923278 -0.73700005
-0.066048905 -0.034307342 -0.73800004
-0.061860014 -0.03408137 -0.73788893
-0.057259705 -0.033333998 -0.73700005
-0.052777763 -0.032936454 -0.73700017
-0.047624327 -0.032795962 -0.73680001
-0.042380936 -0.032132514 -0.73645467
-0.037831098 -0.031440616 -0.73600006
-0.032960508 -0.030912112 -0.73600006
-0.027695 -0.031572744 -0.73600006
-0.022868289 -0.031352535 -0.73600006
-0.017163992 -0.030912112 -0.73600006
-0.36110717 -0.029269254 -0.73900002
-0.35693797 -0.028995138 -0.73766673
-0.35214719 -0.02886354 -0.7367143
-0.34750363 -0.028978232 -0.73725003
-0.34211403 -0.028802803 -0.73699999
-0.33736706 -0.028199896 -0.73736376
-0.3321383 -0.027755905 -0.73742861
-0.32750911 -0.027843449 -0.73787498
-0.32270706 -0.028319012 -0.7373333
-0.31721994 -0.027949372 -0.73757154
-0.31212282 -0.027331322 -0.73663646
-0.30734998 -0.027338928 -0.73766673
-0.30275208 -0.027691346 -0.73825008
-0.29755095 -0.027639994 -0.73806685
-0.29217216 -0.02765841 -0.73737508
-0.28718436 -0.027838666 -0.73714298
-0.28258345 -0.028352067 -0.73816675
-0.2776171 -0.027389839 -0.73900002
-0.2723197 -0.027471898 -0.73718184
-0.26961589 -0.028308002 -0.73700005
-0.04697315 -0.029711468 -0.73900002
-0.041906472 -0.029269254 -0.73900002
-0.037299566 -0.028918926 -0.73814285
-0.032760449 -0.029096957 -0.73785716
-0.02777026 -0.029007941 -0.73799998
-0.022318522 -0.028476188 -0.73827279
-0.017205622 -0.028335162 -0.73775005
-0.012458717 -0.027834918 -0.7372728
-0.0077736476 -0.027366143 -0.73714298
-0.0026855953 -0.026962988 -0.73641676
0.0025828222 -0.026959939 -0.73633337
0.0078507112 -0.026959939 -0.73633337
0.012602677 -0.027247941 -0.73700005
0.016920328 -0.02716795 -0.73646164
0.022114243 -0.02651565 -0.73622227
0.027592801 -0.026287705 -0.73600006
0.032858305 -0.026287705 -0.73600006
0.036807436 -0.025627073 -0.73600006
0.047996636 -0.025627073 -0.73600006
0.051945768 -0.025627073 -0.73600006
-0.31264329 -0.024404885 -0.73900002
-0.3027302 -0.024404885 -0.73900002
-0.29744327 -0.024404885 -0.73900002
-0.29347801 -0.024404885 -0.73900002
-0.27629536 -0.024404885 -0.73900002
-0.27431276 -0.024404885 -0.73900002
-0.0079817595 -0.024404885 -0.73900002
-0.0024115616 -0.023836322 -0.73900002
0.002592176 -0.024404885 -0.73900002
0.0078791436 -0.024404885 -0.73900002
0.012505243 -0.024404887 -0.73900002
0.017527862 -0.024139557 -0.73900002
0.022402244 -0.023725051 -0.7385
0.027667781 -0.023708535 -0.73799998
0.032921329 -0.023027148 -0.73741668
0.037640829 -0.022535389 -0.73709089
0.042130101 -0.022352012 -0.73700005
0.047301147 -0.0224985 -0.73746687
0.052811831 -0.022486489 -0.73706681
0.05750715 -0.021683395 -0.7367273
0.062519222 -0.021016484 -0.73650002
0.067106873 -0.021009574 -0.73625004
0.072398745 -0.021016482 -0.73650002
0.077615105 -0.021002665 -0.73600006
0.082895018 -0.021006119 -0.73612505
0.087697051 -0.0215085 -0.73637503
0.092141829 -0.021013027 -0.73637503
0.097360745 -0.020342033 -0.73600006
0.10262626 -0.020342033 -0.73600006
0.10828667 -0.020606285 -0.73600006
0.11249907 -0.021002663 -0.73600006
0.11671147 -0.020606285 -0.73600006
0.12237189 -0.020342033 -0.73600006
0.1276374 -0.020342033 -0.73600006
0.13224471 -0.020342033 -0.73600006
0.063392311 -0.019098302 -0.73900002
0.067357533 -0.019098302 -0.73900002
0.072644502 -0.019098302 -0.73900002
0.078111455 -0.018016314 -0.73819995
0.082557559 -0.018434981 -0.73900002
0.087124676 -0.018422058 -0.7385
0.092868611 -0.018647473 -0.73866671
0.097625315 -0.018409139 -0.73799998
0.10256162 -0.018492823 -0.73757148
0.1072507 -0.01805944 -0.73725003
0.11206853 -0.017734088 -0.73750007
0.11731856 -0.017729782 -0.73733342
0.12259357 -0.017729782 -0.7373333
0.12766211 -0.017846579 -0.73718178
0.13278294 -0.017525204 -0.73730779
0.13714708 -0.016509414 -0.73700011
0.1421819 -0.016385073 -0.73633337
0.14762831 -0.016761601 -0.73628581
0.15270041 -0.017043997 -0.7362501
0.15777847 -0.016583098 -0.73607707
0.16235682 -0.016213097 -0.73600006
0.16673377 -0.015321246 -0.73600006
0.17239419 -0.015056993 -0.73600006
0.17634332 -0.015056993 -0.73600006
0.1387316 -0.013791721 -0.73900002
0.14269683 -0.013791721 -0.73900002
0.14788233 -0.01378239 -0.73850006
0.15307109 -0.013496532 -0.73740005
0.15733609 -0.013017642 -0.73814291
0.16230303 -0.013109736 -0.73800004
0.16758284 -0.013109736 -0.73799998
0.17254597 -0.01320183 -0.73785716
0.17739074 -0.013102737 -0.737625
0.18210232 -0.012888628 -0.73800004
0.18762912 -0.011877236 -0.73785722
0.1924724 -0.012586322 -0.73755556
0.19696507 -0.012973338 -0.73780006
0.20264986 -0.012597933 -0.73712498
0.20755799 -0.011768915 -0.73700005
0.21233207 -0.011668081 -0.73657149
0.21735778 -0.012425383 -0.7367
0.22237884 -0.012435167 -0.7373333
0.22765386 -0.012435167 -0.73733342
0.23258799 -0.011692534 -0.73814291
0.23709747 -0.011763487 -0.73662508
0.24220294 -0.011755727 -0.73612505
0.24742767 -0.011753843 -0.73600006
0.25269315 -0.011753842 -0.73600006
0.25804582 -0.011757611 -0.73625004
0.262566 -0.011093213 -0.73600006
0.26651511 -0.011093213 -0.73600006
0.20812306 -0.0098117851 -0.73900002
0.21274914 -0.0098117851 -0.73900002
0.21671438 -0.0098117851 -0.73900002
0.2345579 -0.0098117851 -0.73900002
0.23786224 -0.0098117851 -0.73900002
0.24273728 -0.0091323145 -0.73774999
0.24754737 -0.0084686335 -0.73766673
0.25239113 -0.0088528013 -0.73814291
0.25733969 -0.0091351848 -0.73800004
0.26252985 -0.008469441 -0.73775005
0.26750982 -0.0080815433 -0.73692864
0.27227306 -0.0072284471 -0.73657155
0.27738434 -0.0060740034 -0.73620003
0.28296983 -0.0058081732 -0.73600006
0.28757715 -0.0058081737 -0.73600006
0.29218444 -0.0058081732 -0.73600006
0.27185738 -0.0044991057 -0.73800004
0.27751449 -0.0045052022 -0.73900002
0.28273183 -0.0040548588 -0.73766673
0.28730363 -0.003928802 -0.73771441
0.29239824 -0.0026720602 -0.73675007
0.29547539 -0.0025050233 -0.73600006
0.29429746 0.00080029567 -0.73800004
0.29603153 0.0029652885 -0.73709089
0.29619059 0.007252878 -0.73737502
0.29759738 0.010736674 -0.73800004
0.29825735 0.018684879 -0.73800004
0.29946539 0.021715049 -0.73740005
0.30211565 0.023830574 -0.73614293
0.30370265 0.026832823 -0.73733342
0.3074359 0.027770976 -0.73700005
0.31240565 0.029250644 -0.73712504
0.31565985 0.029425427 -0.73600006
0.31733784 0.031626169 -0.73742861
0.32047111 0.0392741 -0.73900002
0.31934017 0.042872366 -0.73700005
0.32048655 0.044399705 -0.73600006
0.31915841 0.046893384 -0.73780006
0.32253137 0.047916368 -0.73700011
0.32743439 0.048259005 -0.73608345
0.33145636 0.049244329 -0.73600006
0.32337895 0.051744569 -0.73900002
0.32761776 0.052379593 -0.73815393
0.33254167 0.052563909 -0.73646158
0.33759943 0.05430916 -0.73600006
0.33236679 0.055193853 -0.73900002
0.33724681 0.0563059 -0.73811108
0.34246314 0.057620957 -0.73750013
0.34747231 0.058408618 -0.73677778
0.35243818 0.058685333 -0.73620003
0.35602871 0.058933571 -0.73600006
-0.34238249 0.064148702 -0.73900002
-0.33678427 0.06363298 -0.736875
-0.33322522 0.06403964 -0.73775005
0.34759825 0.060391273 -0.73766673
0.35346228 0.060773451 -0.73771441
0.35800329 0.060915463 -0.73600006
0.3626636 0.061881762 -0.73700011
0.36730546 0.062364906 -0.73750007
0.37192351 0.062364906 -0.73750007
0.3777034 0.062999897 -0.73720002
0.38274023 0.064100191 -0.73716676
0.38762173 0.064218611 -0.73600006
0.39091268 0.064218611 -0.73600006
-0.34568682 0.067796983 -0.73900002
-0.34206682 0.067519359 -0.73663646
-0.3383598 0.065539867 -0.73600006
-0.33150011 0.067089073 -0.73642862
0.38746795 0.066084288 -0.73785716
0.39168462 0.06653177 -0.73820007
-0.34568682 0.071776912 -0.73900002
-0.34322053 0.071939275 -0.73725003
-0.32805106 0.072856709 -0.73650002
-0.36210275 0.088721894 -0.7383334
-0.35742354 0.087578058 -0.73708344
-0.35295501 0.087582886 -0.73676932
-0.34749439 0.087485515 -0.73642868
-0.34475127 0.086797796 -0.73700005
-0.36254334 0.092919342 -0.7383334
-0.35771051 0.09236145 -0.73600006
-0.3548145 0.090643808 -0.73600006
-0.36210275 0.097116798 -0.7383334
-0.35754472 0.097937338 -0.73620003
-0.3548145 0.099232003 -0.73600006
-0.36089545 0.10144188 -0.73766673
-0.35802004 0.10194372 -0.73650002
-0.3548145 0.10121389 -0.73600006
-0.17590056 -0.050386373 -0.73100001
-0.17393941 -0.050386373 -0.73100001
-0.17659056 -0.046856239 -0.73261535
-0.17224708 -0.047081061 -0.73299998
-0.16768296 -0.047351155 -0.73280001
-0.16239697 -0.047505133 -0.73285717
-0.15753156 -0.047109518 -0.73313344
-0.15245499 -0.0472323 -0.73300004
-0.1475208 -0.046688497 -0.73290914
-0.14289387 -0.046386838 -0.73233342
-0.13752092 -0.045198981 -0.73200005
-0.13275526 -0.045137238 -0.73100007
-0.17654492 -0.043657344 -0.73260003
-0.17230897 -0.043440096 -0.73400009
-0.16874565 -0.044004809 -0.73400003
-0.14577167 -0.044004809 -0.73400003
-0.14248967 -0.044004809 -0.73400009
-0.13761356 -0.043440096 -0.73400009
-0.1321764 -0.043555599 -0.73383331
-0.12750064 -0.04319242 -0.7330001
-0.12254471 -0.042762592 -0.73249996
-0.11778202 -0.042072576 -0.73314291
-0.11291368 -0.042013768 -0.73375005
-0.10759111 -0.041326299 -0.73325002
-0.10256062 -0.041675389 -0.73166668
-0.096687257 -0.040961884 -0.73262501
-0.092624798 -0.041140009 -0.73287499
-0.088476352 -0.041091897 -0.73242861
-0.083072782 -0.041200384 -0.73100001
-0.066729859 -0.041200384 -0.73100001
-0.38535753 -0.036757626 -0.73400003
-0.38250327 -0.037627783 -0.73244447
-0.37855276 -0.036388677 -0.73100007
-0.35109666 -0.035951246 -0.73100001
-0.34782809 -0.035951246 -0.73100001
-0.10573129 -0.038734131 -0.73400003
-0.10237951 -0.039365686 -0.7335
-0.097564928 -0.038986754 -0.73379999
-0.092603311 -0.038734131 -0.73400009
-0.087512001 -0.039146371 -0.7335
-0.082337081 -0.03892199 -0.73260003
-0.077607587 -0.039113123 -0.73288888
-0.072093949 -0.038975775 -0.73237503
-0.067533441 -0.03866021 -0.73263639
-0.062714949 -0.038746417 -0.73200005
-0.057917662 -0.037925471 -0.73255563
-0.052527122 -0.036732141 -0.7335
-0.047279503 -0.036732141 -0.7335
-0.042268302 -0.036598481 -0.73271435
-0.037966326 -0.036279317 -0.73100001
-0.027506854 -0.035951246 -0.73100001
-0.38198894 -0.034114391 -0.73383331
-0.37726706 -0.034162253 -0.73285717
-0.37250426 -0.034745581 -0.73325002
-0.36763474 -0.034781124 -0.73400003
-0.36215374 -0.034244578 -0.73380005
-0.35719958 -0.033708032 -0.73359996
-0.35260764 -0.033576261 -0.73360008
-0.34799227 -0.033330739 -0.7337274
-0.34274766 -0.033153251 -0.73299998
-0.33720148 -0.031985041 -0.73309094
-0.33226696 -0.032088578 -0.73272735
-0.3277708 -0.032754872 -0.73292851
-0.3228316 -0.032752205 -0.73287499
-0.31797144 -0.03231474 -0.7324546
-0.31264052 -0.031040171 -0.73280001
-0.30695674 -0.031492431 -0.73244447
-0.30229905 -0.033211444 -0.7337274
-0.2974 -0.032804616 -0.73400009
-0.29263964 -0.03311519 -0.73358339
-0.2878986 -0.031635012 -0.73362505
-0.045342531 -0.034781124 -0.73400003
-0.041666694 -0.03451759 -0.73400003
-0.037256319 -0.033819623 -0.73357147
-0.032825708 -0.033416364 -0.73300004
-0.027600929 -0.034098592 -0.73350006
-0.022085458 -0.033693995 -0.73330003
-0.017268077 -0.033288319 -0.73281831
-0.012503996 -0.032095727 -0.732889
-0.0079133557 -0.032085598 -0.73266667
-0.0027309277 -0.03196099 -0.73254544
0.0025676223 -0.031400256 -0.73199999
0.0078045111 -0.031400256 -0.73199999
0.012396144 -0.031421855 -0.73250002
0.016985111 -0.031432651 -0.73275006
0.021920692 -0.031300522 -0.73185718
0.027718417 -0.031300522 -0.73185718
0.032227844 -0.031167541 -0.73166674
0.036557384 -0.03070211 -0.73100001
-0.33218917 -0.029510444 -0.73400003
-0.32759437 -0.029510444 -0.73400009
-0.31118438 -0.029510444 -0.73400003
-0.3079024 -0.029510444 -0.73400009
-0.0092405546 -0.029510444 -0.73400003
-0.0026765591 -0.029510444 -0.73400003
0.0025746375 -0.029510444 -0.73400003
0.0078258337 -0.029510444 -0.73400003
0.011764232 -0.029510444 -0.73400003
0.017671829 -0.029510444 -0.73400009
0.022538763 -0.02893424 -0.7337144
0.027508898 -0.028841557 -0.73374999
0.032757409 -0.028841557 -0.73375005
0.03814365 -0.027768631 -0.73278576
0.042537604 -0.026824487 -0.73266679
0.04694188 -0.027284654 -0.73322231
0.052599799 -0.027271651 -0.732889
0.057454966 -0.026717233 -0.7330001
0.063009121 -0.026697913 -0.73245448
0.067537099 -0.026472457 -0.73199999
0.072250605 -0.02605518 -0.73214287
0.077166244 -0.026135234 -0.73175001
0.082431957 -0.025487795 -0.73200005
0.088142797 -0.025936833 -0.73233336
0.092777036 -0.025452977 -0.73100001
0.098006755 -0.025452977 -0.73100001
0.10258278 -0.025452977 -0.73100007
0.058631163 -0.023712697 -0.73400003
0.062963404 -0.023580931 -0.73400009
0.067558199 -0.023580931 -0.73400009
0.072153002 -0.023580931 -0.73400009
0.077390671 -0.023576802 -0.73387504
0.082627691 -0.023572676 -0.7337501
0.087906584 -0.023800543 -0.73400009
0.092857964 -0.023670333 -0.73385727
0.097238876 -0.022793299 -0.7337274
0.1023009 -0.022911087 -0.73366666
0.10731229 -0.023017865 -0.73327285
0.11284977 -0.022922095 -0.73400003
0.11772771 -0.022339534 -0.7334286
0.12262484 -0.022751236 -0.73280001
0.1272639 -0.02276393 -0.73281819
0.13230729 -0.022222122 -0.73270005
0.13751024 -0.020901889 -0.73250008
0.14265439 -0.020887623 -0.73199999
0.14759873 -0.021689884 -0.73250002
0.15239303 -0.021563385 -0.73266667
0.1572154 -0.020909246 -0.73275006
0.16185473 -0.020488409 -0.73180002
0.16730073 -0.02020384 -0.73100001
0.17253047 -0.02020384 -0.73100001
0.17776021 -0.02020384 -0.73100001
0.18168251 -0.02020384 -0.73100001
0.13844936 -0.018969085 -0.73400009
0.14238775 -0.018969085 -0.73400009
0.14566976 -0.018969085 -0.73400003
0.15814134 -0.018969085 -0.73400009
0.16317375 -0.018529862 -0.73400009
0.16791105 -0.017642802 -0.73366678
0.17275028 -0.017772848 -0.73359996
0.17741857 -0.017133107 -0.73353857
0.18237123 -0.01708385 -0.73300004
0.18757161 -0.016837412 -0.7330668
0.19266768 -0.016967187 -0.73300004
0.19768289 -0.016425606 -0.73281831
0.20239882 -0.016301446 -0.73263639
0.20743042 -0.016302284 -0.73266673
0.21247767 -0.015663786 -0.7335
0.21772529 -0.015663786 -0.7335
0.22232249 -0.015730886 -0.7322858
0.22725299 -0.015641533 -0.73250002
0.23267242 -0.016266989 -0.73100001
0.23594101 -0.016266989 -0.73100001
0.18374093 -0.013698407 -0.73400003
0.18767932 -0.013698407 -0.73400003
0.19818172 -0.013698407 -0.73400003
0.20212013 -0.013698407 -0.73400003
0.20737131 -0.013698407 -0.73400003
0.21262251 -0.013698407 -0.73400003
0.23215625 -0.014347013 -0.73350006
0.23760462 -0.014409989 -0.7330001
0.24262485 -0.014234154 -0.73257148
0.24743406 -0.014319556 -0.73212504
0.25230831 -0.014104731 -0.73233336
0.25804073 -0.013670413 -0.73250002
0.26262611 -0.013011579 -0.73250002
0.26795802 -0.012194272 -0.73275006
0.27263933 -0.011047996 -0.73300004
0.27581772 -0.011017852 -0.73100001
0.2734051 -0.0094818641 -0.73400003
0.27764064 -0.0085515296 -0.73340005
0.28215587 -0.0084115816 -0.73275012
0.28720337 -0.0082939463 -0.73290914
0.29267818 -0.0079133986 -0.73330778
0.29602712 -0.0022126362 -0.73271435
0.29689303 0.0027686851 -0.73300004
0.29689306 0.0073742457 -0.73300004
0.29784164 0.012117932 -0.73340005
0.29839617 0.017069122 -0.73318189
0.30119103 0.018849719 -0.73149997
0.29992363 0.020561002 -0.73400003
0.30283254 0.021589568 -0.73310006
0.30706906 0.022788571 -0.73292857
0.31209528 0.023732213 -0.73244447
0.31547081 0.024447214 -0.73199999
0.30911323 0.026490517 -0.73400003
0.31234172 0.026486116 -0.7338751
0.31727472 0.027776867 -0.73314297
0.31961563 0.042302549 -0.73400003
0.32250378 0.044015523 -0.73400003
0.32594457 0.044158407 -0.73199999
0.32792068 0.045810562 -0.73320001
0.33203697 0.048344951 -0.73285717
0.33448437 0.050832748 -0.7335
0.33738789 0.052407388 -0.73300004
0.34190801 0.054192968 -0.73314291
0.34745055 0.0546561 -0.73180002
0.35164887 0.054596353 -0.73100001
0.34455881 0.05613808 -0.73400003
0.34772167 0.056118958 -0.73375005
0.35283354 0.056565285 -0.73312509
0.35714355 0.057662189 -0.732889
0.36197659 0.058434598 -0.73250002
0.36784059 0.058613274 -0.73200005
0.37256777 0.058533203 -0.73100001
0.37714383 0.058533203 -0.73100007
0.38237354 0.059845489 -0.73100007
0.36293802 0.060091089 -0.73400009
0.36753279 0.060091089 -0.73400003
0.37284729 0.060620729 -0.73357147
0.37745962 0.060609028 -0.7334286
0.38225204 0.061664596 -0.73355561
0.38721883 0.061963014 -0.73275
0.39050677 0.062726431 -0.73400003
-0.33690333 0.067757525 -0.73400015
-0.33264396 0.067740686 -0.73381835
-0.32890716 0.067997105 -0.73400003
-0.34072235 0.072608948 -0.73400003
-0.33739382 0.072349168 -0.73328573
-0.33214262 0.072459288 -0.73206669
-0.32846135 0.073197372 -0.73330003
-0.33540744 0.07559289 -0.73100001
-0.33410001 0.07559289 -0.73100001
-0.32689211 0.0768402 -0.73177785
-0.32401955 0.078683607 -0.73185718
-0.32303178 0.082724191 -0.73140001
-0.34794277 0.08907982 -0.73400003
-0.34245858 0.087702379 -0.7335
-0.32249904 0.087657161 -0.73175001
-0.35516316 0.093691662 -0.73400003
-0.35241821 0.092553683 -0.73400015
-0.34781799 0.091865614 -0.7325834
-0.34437534 0.090807319 -0.73199999
-0.32250878 0.090864651 -0.73140001
-0.35516316 0.095668167 -0.73400003
-0.35217926 0.097354896 -0.73380005
-0.34848177 0.097245574 -0.73100001
-0.35122475 0.10093885 -0.73400003
-0.34895849 0.10132174 -0.73199999
-0.32429427 0.10643157 -0.73100001
-0.17274967 -0.055254966 -0.72600001
-0.17565992 -0.052283179 -0.73000002
-0.17226818 -0.052318674 -0.72900009
-0.16756982 -0.052190069 -0.72813338
-0.16264863 -0.052258573 -0.72786677
-0.15760075 -0.052137248 -0.72799993
-0.15239251 -0.052137248 -0.72799999
-0.14746323 -0.051950928 -0.72799999
-0.14244854 -0.051420897 -0.72709095
-0.13780369 -0.051386405 -0.72659999
-0.13249646 -0.050693389 -0.72599995
-0.12795174 -0.050041731 -0.72600001
-0.11172061 -0.050041731 -0.72600001
-0.14693575 -0.049006961 -0.73000002
-0.14180195 -0.048525374 -0.7293334
-0.13738444 -0.047512069 -0.72920007
-0.13268456 -0.047683951 -0.72800016
-0.1276532 -0.046909645 -0.72800004
-0.12244492 -0.046909649 -0.72800004
-0.11716083 -0.047051147 -0.72784609
-0.112353 -0.046909649 -0.72799993
-0.10733525 -0.046882853 -0.72826672
-0.10289615 -0.047290903 -0.72745454
-0.097571425 -0.046847001 -0.727
-0.092684701 -0.046417888 -0.72640002
-0.088347778 -0.046131808 -0.72600001
-0.37739003 -0.041920751 -0.72833335
-0.37401575 -0.041570231 -0.72600001
-0.12082284 -0.043765001 -0.73000002
-0.1178854 -0.044160672 -0.7293334
-0.11233615 -0.043765001 -0.73000002
-0.10711357 -0.043765001 -0.73000002
-0.10201555 -0.043942254 -0.7293334
-0.098054491 -0.043839231 -0.72927278
-0.092649832 -0.043977704 -0.72920007
-0.08719939 -0.043805879 -0.72872734
-0.082254231 -0.043031905 -0.72871429
-0.077522561 -0.042988572 -0.72799993
-0.073000595 -0.04282942 -0.72784615
-0.067983583 -0.043295078 -0.7284286
-0.06263572 -0.043048896 -0.72899997
-0.057483319 -0.042866793 -0.72813332
-0.052336384 -0.042029575 -0.72720009
-0.047758013 -0.041484993 -0.72680008
-0.043549843 -0.040918581 -0.72600001
-0.3770721 -0.038228568 -0.7294001
-0.37234819 -0.03762646 -0.72830772
-0.36747906 -0.037199076 -0.72720003
-0.36229292 -0.036998782 -0.72818184
-0.35746688 -0.037107993 -0.72800004
-0.35279635 -0.036875226 -0.72911119
-0.34752122 -0.037968148 -0.72777778
-0.34282553 -0.037787206 -0.72753853
-0.33775097 -0.037181441 -0.72709095
-0.3320325 -0.036484446 -0.72711116
-0.3273015 -0.037108511 -0.72800004
-0.32238871 -0.037142195 -0.72866666
-0.31770286 -0.036996424 -0.72900003
-0.31258056 -0.036334679 -0.72742867
-0.30749622 -0.036349244 -0.72771436
-0.30252725 -0.036732454 -0.727
-0.29860145 -0.037075426 -0.72733343
-0.056519829 -0.03950591 -0.73000002
-0.052276485 -0.039178289 -0.73000002
-0.047296848 -0.039053507 -0.72942865
-0.042723652 -0.039148711 -0.72771436
-0.037623029 -0.038524434 -0.72781825
-0.032624632 -0.037786853 -0.72849995
-0.027393973 -0.038415115 -0.72800004
-0.022185698 -0.037760463 -0.72799993
-0.017163461 -0.037008055 -0.72836369
-0.012786312 -0.036722131 -0.72771436
-0.007865875 -0.036469448 -0.72825009
-0.0026576384 -0.036494039 -0.72875005
0.00255029 -0.036418919 -0.72725004
0.0077512013 -0.036406174 -0.727
0.012573461 -0.036044694 -0.7276001
0.017479222 -0.035705343 -0.72600001
0.022023939 -0.035705343 -0.72600001
0.0272179 -0.035705343 -0.72600001
-0.34082404 -0.034591578 -0.73000002
-0.33725286 -0.034559987 -0.7293334
-0.33276075 -0.034567885 -0.72950006
-0.32972604 -0.034591578 -0.73000002
-0.31579918 -0.03415475 -0.73000002
-0.31184185 -0.033229239 -0.72888893
-0.30765453 -0.033877552 -0.72875005
-0.30392787 -0.034091569 -0.72866672
-0.26502135 -0.03057611 -0.72800004
-0.015065601 -0.034591578 -0.73000002
-0.01245431 -0.034591578 -0.73000002
-0.0078845527 -0.034591578 -0.73000002
-0.0025314083 -0.034329481 -0.73000002
0.0025606067 -0.033936337 -0.73000002
0.0077745202 -0.033900797 -0.72925007
0.012987949 -0.033888947 -0.72900003
0.01755145 -0.033888947 -0.72900003
0.022335922 -0.033675801 -0.72911119
0.027116932 -0.033675797 -0.72911114
0.032797281 -0.033486322 -0.7288
0.037791383 -0.032712549 -0.7286154
0.043086354 -0.032240819 -0.7277143
0.047695141 -0.031985626 -0.72740006
0.052170258 -0.031739332 -0.72745466
0.05721423 -0.031866618 -0.72766674
0.062449433 -0.031620193 -0.72800004
0.067641057 -0.031873621 -0.72783327
0.072814763 -0.031859618 -0.72750014
0.077424973 -0.031678606 -0.72666675
0.082096085 -0.031074669 -0.72657144
0.086948469 -0.030492112 -0.72600001
0.092271149 -0.030534111 -0.72700006
0.09760455 -0.03057611 -0.72800004
0.10197347 -0.030520111 -0.72666669
0.043035597 -0.029349623 -0.73000002
0.047605358 -0.029349623 -0.73000002
0.052175116 -0.029349623 -0.73000002
0.057789385 -0.029087527 -0.73000002
0.062228587 -0.029087527 -0.73000002
0.068122648 -0.028787985 -0.73000008
0.072412618 -0.028694376 -0.73000002
0.076902613 -0.028664224 -0.72925007
0.082091749 -0.027999531 -0.72900003
0.087070592 -0.028269066 -0.72920007
0.092565507 -0.028012332 -0.7293334
0.097828001 -0.028025731 -0.72966671
0.10292947 -0.027993424 -0.72883344
0.10782256 -0.026919527 -0.72813332
0.11255796 -0.027166754 -0.72716665
0.11751047 -0.026960161 -0.72815394
0.12213396 -0.027020769 -0.72785717
0.12755212 -0.026653025 -0.72800004
0.13269901 -0.026641419 -0.72766674
0.13768822 -0.026515655 -0.72745454
0.14272958 -0.02625012 -0.72714293
0.14712407 -0.026399566 -0.72820002
0.1523951 -0.026018478 -0.72850001
0.15684961 -0.025748134 -0.727
0.16226095 -0.025278879 -0.72600001
0.1674549 -0.025278879 -0.72600001
0.17264888 -0.025278879 -0.72600001
0.17784283 -0.025278879 -0.72600001
0.18289 -0.025348518 -0.72800004
0.18744722 -0.025348516 -0.72800004
0.19238907 -0.025313698 -0.727
0.19537246 -0.025278879 -0.72600001
0.11223479 -0.024107667 -0.73000002
0.11745736 -0.024107667 -0.73000002
0.12072148 -0.024107667 -0.73000002
0.13247229 -0.024107669 -0.73000002
0.1373197 -0.023510551 -0.72955561
0.14243305 -0.023339948 -0.72942865
0.14748719 -0.024107667 -0.73000002
0.15270978 -0.024107667 -0.73000002
0.15782329 -0.023435911 -0.72950006
0.16257052 -0.022857575 -0.72818184
0.16763477 -0.022754345 -0.72866672
0.17249697 -0.02264007 -0.72920007
0.17735492 -0.022775164 -0.7293334
0.18278308 -0.022403883 -0.72942859
0.18789783 -0.022133676 -0.72975004
0.19267768 -0.022301355 -0.72914284
0.19745985 -0.022051109 -0.72835296
0.20242001 -0.022078194 -0.72799993
0.20714603 -0.021952113 -0.72813338
0.21243583 -0.021526145 -0.72799993
0.21739371 -0.021164648 -0.72800004
0.2222973 -0.020744938 -0.72700006
0.22726488 -0.020655794 -0.72714287
0.23269774 -0.020093285 -0.72700006
0.23952113 -0.020065647 -0.72600001
0.24211812 -0.020065647 -0.72600001
0.19710171 -0.018865712 -0.73000002
0.2023243 -0.018865712 -0.73000002
0.20754686 -0.018865712 -0.73000002
0.21276945 -0.018210467 -0.73000002
0.21799204 -0.018210467 -0.73000002
0.22256178 -0.018210467 -0.73000002
0.22713153 -0.018210467 -0.73000002
0.23235413 -0.018210467 -0.73000002
0.23751706 -0.01765589 -0.72927284
0.24246697 -0.017529979 -0.72900009
0.2476435 -0.017609149 -0.72815382
0.25266397 -0.017382313 -0.72781825
0.25752282 -0.017489899 -0.72733343
0.26272634 -0.017489897 -0.72733343
0.26722646 -0.016987428 -0.72675008
0.27263266 -0.016155723 -0.72600001
0.27587888 -0.016155723 -0.72600001
0.25324443 -0.014934245 -0.73000002
0.25716138 -0.014934245 -0.73000002
0.26238394 -0.014934245 -0.73000002
0.26767582 -0.014360918 -0.72942865
0.27245477 -0.013603896 -0.72900003
0.2774902 -0.0134025 -0.72828567
0.28236401 -0.012938721 -0.72849995
0.28740343 -0.012811144 -0.7286666
0.29222599 -0.012280148 -0.72814292
0.29578909 -0.011811363 -0.72600001
0.29428291 -0.0085553806 -0.72885722
0.29623422 -0.0073196325 -0.7288
0.29744196 -0.0026610268 -0.72909099
0.29722774 0.0027535765 -0.72900003
0.29759809 0.0080571044 -0.72866672
0.29875174 0.01256683 -0.72885722
0.300825 0.013833055 -0.72666669
0.29959482 0.015862241 -0.73000002
0.3026886 0.016873544 -0.7291429
0.30734387 0.01756341 -0.72800004
0.31190085 0.0186025 -0.72825009
0.30808151 0.020448953 -0.73000002
0.31261444 0.021018839 -0.72909099
0.31685767 0.023029789 -0.72866672
0.31841585 0.026635889 -0.72900009
0.31770504 0.038800623 -0.72700006
0.32197529 0.039886523 -0.72600001
0.31895608 0.041303303 -0.72800004
0.32265294 0.042015284 -0.72900009
0.32710761 0.04271856 -0.72760004
0.33021957 0.043856777 -0.727
0.32962465 0.045348238 -0.73000002
0.33237752 0.046651956 -0.7281667
0.33706033 0.047914751 -0.72749996
0.34240356 0.048547048 -0.72742867
0.34764314 0.048519645 -0.72733337
0.35248983 0.049009681 -0.72600001
0.3550868 0.049009681 -0.72600001
0.33853123 0.050883166 -0.72950006
0.34243545 0.051583149 -0.72920007
0.34736776 0.051854488 -0.72933334
0.35276061 0.052184746 -0.72906667
0.35774961 0.052486796 -0.7284705
0.36221665 0.052812926 -0.72750014
0.36708423 0.053307079 -0.72683328
0.37247956 0.053645946 -0.72700012
0.37572932 0.054297604 -0.727
0.35834885 0.055832155 -0.73000002
0.36291859 0.056487396 -0.73000002
0.36728507 0.056306381 -0.72885722
0.37219253 0.056559153 -0.72971433
0.37767428 0.056494027 -0.72866666
0.38255659 0.057714481 -0.72818184
0.38683906 0.058549862 -0.72885728
-0.33247772 0.077658586 -0.72928566
-0.32861018 0.07794068 -0.72977781
-0.33184221 0.082248099 -0.72719997
-0.3273232 0.082651809 -0.72858816
-0.32450348 0.084662907 -0.73000002
-0.34082404 0.089249626 -0.73000002
-0.33710253 0.088097721 -0.72725004
-0.33231422 0.087006122 -0.72599995
-0.32733712 0.087650008 -0.72759986
-0.32424235 0.087545991 -0.73000002
-0.34539378 0.09383633 -0.73000002
-0.34219643 0.092694126 -0.72875011
-0.33867902 0.092494935 -0.72633338
-0.32771912 0.092798151 -0.72699994
-0.32427698 0.092685819 -0.72920007
-0.34604663 0.097112566 -0.73000002
-0.34226006 0.097430721 -0.72750002
-0.33960575 0.097232088 -0.72600001
-0.32784048 0.097719267 -0.72685713
-0.32414135 0.097218201 -0.72945458
-0.3460466 0.10104401 -0.73000002
-0.34239838 0.10089213 -0.72733343
-0.32715592 0.10217533 -0.72745466
-0.32420594 0.10226103 -0.7293334
-0.33012477 0.10795512 -0.72800004
-0.32786423 0.10656068 -0.72876924
-0.32450348 0.10563073 -0.73000002
-0.17502622 -0.060135037 -0.72200006
-0.17244355 -0.060135037 -0.72200006
-0.16792387 -0.060135037 -0.72200006
-0.16275853 -0.060135037 -0.72200006
-0.15823886 -0.060135037 -0.72200006
-0.17526864 -0.058920406 -0.72300005
-0.17219447 -0.057349637 -0.72366667
-0.16757533 -0.056993734 -0.72328573
-0.16271615 -0.056991205 -0.72325003
-0.15754186 -0.056991205 -0.72324991
-0.15253745 -0.057112027 -0.72313339
-0.14751744 -0.056991212 -0.72324991
-0.14242837 -0.056516878 -0.72292322
-0.13745223 -0.05617087 -0.72270006
-0.13283066 -0.056156512 -0.72236377
-0.12805717 -0.056002654 -0.7222001
-0.14268757 -0.053877342 -0.72500002
-0.13703696 -0.053587317 -0.72460002
-0.13213146 -0.053152278 -0.72399998
-0.12724644 -0.052813917 -0.72383332
-0.12268862 -0.053174395 -0.72253346
-0.11762937 -0.052387893 -0.72241676
-0.11251272 -0.053059835 -0.72275007
-0.10738017 -0.052429598 -0.72300005
-0.1021364 -0.051745571 -0.72250009
-0.097868875 -0.051386181 -0.72200006
-0.093026355 -0.051062148 -0.72200006
-0.087861009 -0.051062148 -0.72200006
-0.37570304 -0.045941181 -0.72300005
-0.37389207 -0.045877639 -0.72200006
-0.32675827 -0.045877639 -0.72200006
-0.32482126 -0.045877639 -0.72200006
-0.12518209 -0.049972806 -0.72500002
-0.12258869 -0.04997281 -0.72500008
-0.11805023 -0.049972806 -0.72500002
-0.11416014 -0.049972806 -0.72500002
-0.10767663 -0.049972806 -0.72500002
-0.10198914 -0.04965736 -0.72419995
-0.097168796 -0.049253121 -0.72399998
-0.092161715 -0.048580583 -0.72366667
-0.087659121 -0.048427369 -0.72300005
-0.082810208 -0.047885824 -0.72300005
-0.077776156 -0.047580916 -0.72257155
-0.072415389 -0.047205832 -0.72250009
-0.067065597 -0.047084983 -0.72245467
-0.06213408 -0.047248498 -0.7231667
-0.057320245 -0.047095347 -0.72280008
-0.053292617 -0.046821602 -0.72228587
-0.047846813 -0.045893528 -0.72225004
-0.042664234 -0.045877639 -0.72200006
-0.037498888 -0.045877639 -0.72200006
-0.032333545 -0.045877639 -0.72200006
-0.027168196 -0.045877639 -0.72200006
-0.023294184 -0.045877639 -0.72200006
-0.3754456 -0.044766754 -0.72500002
-0.37156284 -0.042983595 -0.72350001
-0.36755535 -0.042483553 -0.72308338
-0.36245218 -0.042009756 -0.72236377
-0.3575044 -0.042587005 -0.72311783
-0.35262573 -0.042844482 -0.72300005
-0.34762478 -0.042570014 -0.72282356
-0.34270531 -0.042536564 -0.72284621
-0.33728522 -0.042151306 -0.72321433
-0.33213642 -0.042561747 -0.72293335
-0.32754624 -0.042840481 -0.72326678
-0.32248235 -0.042332269 -0.72276926
-0.3179369 -0.041820206 -0.72228587
-0.31061658 -0.04069313 -0.72200006
-0.30749398 -0.040707223 -0.7222501
-0.30382925 -0.041383915 -0.72275007
-0.071368963 -0.044766754 -0.72500002
-0.05516018 -0.044766754 -0.72500002
-0.052207243 -0.044410504 -0.72450006
-0.047739189 -0.04383086 -0.72388887
-0.042619161 -0.043190118 -0.72376931
-0.037602764 -0.042753633 -0.7240001
-0.032389518 -0.042709123 -0.72325003
-0.027215229 -0.042709116 -0.72324991
-0.022040943 -0.042709116 -0.72324991
-0.017499615 -0.042675342 -0.72266674
-0.013291337 -0.042111512 -0.7222501
-0.0078035472 -0.041369375 -0.72250009
-0.002634624 -0.041369375 -0.72250009
0.0025335257 -0.04136233 -0.72237509
0.0076978914 -0.04069313 -0.72200006
0.010926233 -0.04069313 -0.72200006
0.038689967 -0.04069313 -0.72200006
0.040626973 -0.04069313 -0.72200006
-0.36610937 -0.0390401 -0.72500002
-0.36280274 -0.039235324 -0.72500002
-0.35794014 -0.039560702 -0.72500002
-0.35275337 -0.039126866 -0.72500002
-0.34821486 -0.039560702 -0.72500008
-0.34043467 -0.039560702 -0.72500002
