# .PCD v0.7 - Point Cloud Data file format
VERSION 0.7
FIELDS x y z
SIZE 4 4 4
TYPE F F F
COUNT 1 1 1
WIDTH 266
HEIGHT 1
VIEWPOINT 0 0 0 1 0 0 0
POINTS 266
DATA ascii
0.077692583 0.065903716 -0.80500007
0.083066866 0.067291453 -0.80650008
0.087376818 0.068324797 -0.80800009
0.09110111 0.069135807 -0.80900002
0.084171623 0.070239104 -0.80500007
0.087875508 0.071543053 -0.80522239
0.091977395 0.072263278 -0.80611122
0.09281034 0.076019615 -0.80500007
0.066328287 0.059576102 -0.80250001
0.068558052 0.062298112 -0.80200005
0.07145638 0.063764542 -0.80233335
0.073100679 0.065658107 -0.80200005
0.077738643 0.067976102 -0.80175006
0.081090085 0.068623051 -0.80300003
0.082602598 0.071775675 -0.80200005
0.087038845 0.073877811 -0.80266666
0.088382497 0.076254837 -0.80140013
0.091747254 0.077175155 -0.80200005
0.04369631 0.051499914 -0.79680008
0.047732629 0.052407179 -0.79755563
0.048350185 0.055164106 -0.79600006
0.052887831 0.056929141 -0.79709101
0.057221055 0.057779647 -0.79860002
0.06147074 0.059749763 -0.80000001
0.057960086 0.061237235 -0.79600006
0.06250795 0.062551744 -0.79745454
0.066394702 0.062901035 -0.79900002
0.063298926 0.065166906 -0.79600012
0.068101741 0.066174135 -0.7966668
0.071897961 0.067924909 -0.79820001
0.076446794 0.069400162 -0.79950005
0.07334467 0.071776189 -0.79685718
0.077885576 0.072290763 -0.79775
0.081196755 0.07357081 -0.79933333
0.07895951 0.075169705 -0.79600006
0.082843445 0.07715489 -0.7968334
0.087295309 0.078320369 -0.79899997
0.09120433 0.079310641 -0.79933333
0.084654264 0.080885589 -0.79600006
0.08805009 0.081905976 -0.7966668
0.09057603 0.081805095 -0.79800004
0.037693575 0.047052696 -0.79311115
0.040418077 0.049323976 -0.79400003
0.042791318 0.05331935 -0.79285723
0.047812931 0.05637889 -0.79300004
0.051392239 0.058907956 -0.79350007
0.054055311 0.061098978 -0.79266679
0.057387061 0.063259557 -0.7930001
0.062760435 0.066327445 -0.79280007
0.066843152 0.068242401 -0.7930001
0.068232588 0.071059898 -0.79266679
0.071947895 0.073663257 -0.79325008
0.07633052 0.074442759 -0.79333341
0.072896585 0.076213755 -0.79200006
0.07798399 0.077459931 -0.7922858
0.080891289 0.078544289 -0.79400003
0.08318001 0.081698574 -0.79280013
0.086343221 0.083733328 -0.79320002
0.017857624 0.04289924 -0.78860009
0.022502525 0.042596992 -0.78824997
0.027351052 0.042856365 -0.78945458
0.03079474 0.044348162 -0.79000008
0.016132675 0.046063501 -0.78700006
0.027754463 0.04643134 -0.78725004
0.03239312 0.047580838 -0.78875011
0.035975587 0.04836639 -0.79000002
0.033375684 0.050655145 -0.78700006
0.037440032 0.052317627 -0.78836375
0.040542252 0.053649995 -0.7895
0.042420052 0.057309493 -0.78800011
0.046788912 0.058032535 -0.78966665
0.04358073 0.060191646 -0.78700006
0.048084032 0.062133517 -0.78775001
0.052326418 0.062783271 -0.78940004
0.056463484 0.064675696 -0.79000002
0.053433876 0.065842904 -0.78700006
0.057950206 0.067242846 -0.78836364
0.062539198 0.068363018 -0.79000002
0.05932416 0.070581973 -0.78733337
0.062812001 0.07187558 -0.78810012
0.067010455 0.073128596 -0.78940004
0.063990824 0.075732611 -0.78700006
0.067975864 0.077568941 -0.78799999
0.072712496 0.077616766 -0.79000002
0.076009408 0.078384966 -0.79000008
0.06962119 0.081383869 -0.78700006
0.072477281 0.081429228 -0.78744453
0.07764259 0.08209306 -0.78840005
0.082063116 0.083513699 -0.78933334
0.079474337 0.085622311 -0.78700006
0.082847051 0.086890623 -0.78783339
0.082289524 0.091273569 -0.78700006
0.014612819 0.04991845 -0.78100002
0.017572973 0.047886342 -0.78220004
0.022334216 0.0471927 -0.78233337
0.026845651 0.04862136 -0.78271431
0.02905925 0.051809143 -0.78133345
0.032407779 0.052729774 -0.78344446
0.035747893 0.054401789 -0.78500003
0.013215958 0.059031732 -0.78100002
0.033514194 0.055597723 -0.78200006
0.037831038 0.057597537 -0.78318185
0.014612819 0.061835818 -0.78100002
0.016009681 0.063938886 -0.78100002
0.03980723 0.061914094 -0.78200006
0.042519685 0.062413711 -0.78300005
0.046005301 0.063742042 -0.78433341
0.016009681 0.065340929 -0.78100002
0.048038259 0.066506177 -0.78188896
0.052335795 0.068053693 -0.78319997
0.055872113 0.06943351 -0.78500003
0.053026505 0.0709491 -0.78100002
0.057379872 0.072554238 -0.78320003
0.061722182 0.07413093 -0.78500003
0.058578759 0.076640271 -0.78185725
0.062182184 0.077700637 -0.78354549
0.065700226 0.079298079 -0.78500003
0.062950775 0.082225055 -0.78157157
0.067020252 0.082831889 -0.78400004
0.072252296 0.083995506 -0.78500003
0.075060323 0.083995499 -0.78500003
0.068601727 0.086178206 -0.78180009
0.072675802 0.08648099 -0.78200006
0.077543311 0.087484978 -0.78299999
0.081196889 0.08845935 -0.78460002
0.078868441 0.090577707 -0.78100002
0.080470845 0.0922153 -0.78300011
0.017361967 0.049790617 -0.77900004
0.022238461 0.049790617 -0.77900004
0.014227078 0.052937135 -0.77900004
0.01735414 0.052564617 -0.77866673
0.022187239 0.052468345 -0.77724999
0.026892075 0.052937839 -0.77828574
0.014107853 0.057004116 -0.77883339
0.017348519 0.057439595 -0.77841663
0.021320069 0.056842815 -0.77600002
0.027736738 0.055929884 -0.77687502
0.032632746 0.056917574 -0.77766675
0.035923909 0.059088141 -0.77866673
0.017632054 0.062397428 -0.77733338
0.020070942 0.061439943 -0.77600002
0.038014445 0.06299898 -0.77711117
0.017339678 0.065788269 -0.77800006
0.039501801 0.067012213 -0.77600002
0.042341944 0.067111015 -0.77716672
0.046595797 0.068531938 -0.77857149
0.042971596 0.070494883 -0.77600002
0.047529005 0.072072476 -0.77675003
0.052476287 0.073352449 -0.77800012
0.053964384 0.076942198 -0.77640003
0.056902289 0.077999078 -0.7786001
0.022846779 0.081639424 -0.77600002
0.058095392 0.08129631 -0.77716672
0.061417557 0.083729282 -0.77816671
0.063546374 0.086305134 -0.77725005
0.067184955 0.088168032 -0.77742869
0.071966641 0.089381225 -0.77757144
0.074295379 0.091506869 -0.77700007
0.076867364 0.092288367 -0.77770007
0.023480065 0.0578079 -0.77400011
0.027633091 0.058502633 -0.77400011
0.032132201 0.058850009 -0.77400005
0.022183649 0.062480535 -0.77308345
0.027537886 0.06176221 -0.77133334
0.032549936 0.062124133 -0.77240002
0.035505619 0.063054457 -0.77360004
0.019301178 0.067446992 -0.77300012
0.021348247 0.065973848 -0.77200001
0.033731375 0.06588839 -0.77100003
0.036828797 0.06752415 -0.77229995
0.019264169 0.072163567 -0.77149999
0.022010082 0.074192941 -0.77100003
0.037898667 0.071479805 -0.77159995
0.04248812 0.07292854 -0.77350014
0.047013871 0.074481629 -0.77400005
0.019419635 0.077081986 -0.77220005
0.022852369 0.077288747 -0.77149999
0.025457522 0.078345217 -0.77100009
0.043173429 0.076071076 -0.77133334
0.047806695 0.076706469 -0.77242863
0.051500313 0.078106873 -0.77322227
0.022777487 0.08139395 -0.7736668
0.025457522 0.081805445 -0.77100003
0.053410389 0.081952006 -0.77240002
0.056910865 0.083245389 -0.77366674
0.024172237 0.085597448 -0.77400005
0.05857192 0.086331382 -0.77125001
0.062137175 0.087949179 -0.77270001
0.066394642 0.089765877 -0.77400005
0.069155172 0.092687353 -0.77133334
0.072437868 0.092651725 -0.77200001
0.073912904 0.095895365 -0.773
0.075392865 0.095323786 -0.77400005
0.048482142 0.10381012 -0.77166671
0.05236385 0.10467689 -0.77125001
0.052921232 0.10718076 -0.77155548
0.056714304 0.10787251 -0.77100003
0.023328386 0.06433697 -0.76900005
0.027454581 0.06433697 -0.76900005
0.031580776 0.06433697 -0.76900005
0.022765724 0.067976475 -0.76900005
0.027395785 0.067644641 -0.76737511
0.032121528 0.067927904 -0.76845467
0.022837171 0.072225556 -0.76900011
0.027417392 0.072526149 -0.76800013
0.032241695 0.072557017 -0.76833332
0.035936207 0.073080152 -0.76900005
0.027924778 0.077276543 -0.76884627
0.032630455 0.077575348 -0.76828587
0.037317462 0.077130236 -0.76778573
0.042248782 0.078304693 -0.76790011
0.047122784 0.078970291 -0.76900005
0.027884813 0.082893215 -0.76776934
0.03240281 0.081991352 -0.76627266
0.036252692 0.080587372 -0.76600003
0.043578587 0.081539191 -0.76633334
0.04739419 0.082559474 -0.76690918
0.050397653 0.083067559 -0.76860005
0.027236493 0.087408394 -0.76738471
0.031320572 0.087737978 -0.76600003
0.049268007 0.086775392 -0.76600003
0.052598864 0.086912423 -0.76769245
0.056981873 0.087736271 -0.76840007
0.027772767 0.090535671 -0.76640004
0.032486841 0.092730515 -0.76669234
0.049953021 0.094338529 -0.76600003
0.052974153 0.09256319 -0.76610005
0.057535887 0.092351034 -0.76662505
0.062460087 0.092536114 -0.76816672
0.06637837 0.092775308 -0.76900005
0.070779637 0.0933275 -0.76900005
0.033567347 0.097644612 -0.76728576
0.038307741 0.097088762 -0.76600003
0.048598841 0.098496459 -0.76625001
0.052231926 0.097533904 -0.76654547
0.057695609 0.09775795 -0.7669335
0.062364623 0.097903967 -0.76700014
0.067166001 0.097903959 -0.76700014
0.071084112 0.097486645 -0.76733339
0.033643875 0.10023001 -0.76900005
0.047397859 0.10092026 -0.76900005
0.052399311 0.10173601 -0.76900005
0.05753101 0.10273797 -0.76869243
0.062418833 0.10281362 -0.7676667
0.066480093 0.10169046 -0.76700002
0.058676131 0.10630421 -0.76900005
0.061610311 0.10621218 -0.76900005
0.033698417 0.083942913 -0.76400006
0.037603743 0.082521386 -0.76309091
0.04159189 0.083054006 -0.76340002
0.04572323 0.084491529 -0.76400006
0.03388061 0.087691754 -0.764
0.037409291 0.087651223 -0.76166672
0.042155474 0.087602533 -0.76125008
0.047348674 0.088181995 -0.76307696
0.05118905 0.089977629 -0.76400006
0.034791581 0.091349155 -0.76400006
0.037459005 0.09256006 -0.7626667
0.042186659 0.092458636 -0.76183343
0.047530871 0.092486657 -0.76309091
0.05118905 0.091349155 -0.76400006
0.034791581 0.096835256 -0.76400006
0.037182882 0.096835256 -0.76400006
0.042278957 0.096771881 -0.76350009
0.047230121 0.096258454 -0.76350003
0 0 0
