# .PCD v0.7 - Point Cloud Data file format
VERSION 0.7
FIELDS x y z
SIZE 4 4 4
TYPE F F F
COUNT 1 1 1
WIDTH 1321
HEIGHT 1
VIEWPOINT 0 0 0 1 0 0 0
POINTS 1321
DATA ascii
0.11730122 -0.046728499 -0.70550001
0.12243479 -0.04676117 -0.70600003
0.12742352 -0.046256647 -0.70800006
0.13210298 -0.046405826 -0.70640004
0.13739255 -0.046063028 -0.70500004
0.14117533 -0.046063028 -0.70500004
0.14747998 -0.046063028 -0.70500004
0.089476809 -0.043840542 -0.71000004
0.092016563 -0.043840542 -0.71000004
0.10916384 -0.044044625 -0.70920002
0.11273036 -0.043109734 -0.70850003
0.11782758 -0.043756418 -0.70866668
0.1222054 -0.043952204 -0.70925003
0.12693809 -0.043840542 -0.71000004
0.13264506 -0.044323251 -0.70900005
0.13726053 -0.043756418 -0.70866668
0.14237636 -0.043704793 -0.70784622
0.14739706 -0.043691333 -0.70763636
-0.047807574 -0.067001961 -0.7001819
-0.042407535 -0.06668023 -0.70000005
-0.037612498 -0.06710694 -0.70008326
-0.032860368 -0.066866592 -0.70020002
-0.027967939 -0.066093802 -0.70000005
-0.047850136 -0.062996075 -0.7033127
-0.042787597 -0.06295073 -0.70281255
-0.037756 -0.062945187 -0.70275009
-0.032740008 -0.062967353 -0.70300013
-0.027708301 -0.062961586 -0.7029376
-0.022659503 -0.06290482 -0.70231253
-0.017626656 -0.06287688 -0.70199996
-0.012742842 -0.062407348 -0.70161545
-0.0075675021 -0.062123403 -0.70058334
-0.0025537924 -0.062101528 -0.70033336
0.0024565458 -0.062101535 -0.7003333
0.0072158626 -0.061847311 -0.70029992
0.012053954 -0.061234813 -0.70000005
0.016227249 -0.060815938 -0.70000005
0.02812114 -0.060815942 -0.70000005
-0.0069741621 -0.059899643 -0.70400012
-0.0025671627 -0.059899643 -0.70400006
0.0024694072 -0.059267737 -0.70400006
0.0075059775 -0.059267737 -0.70400006
0.012535532 -0.059235834 -0.70362502
0.017732009 -0.058688842 -0.70327282
0.022583714 -0.058551054 -0.70300007
0.027605986 -0.058537167 -0.70283335
0.032733425 -0.057984501 -0.70226687
0.037614714 -0.057830788 -0.70193756
0.042594928 -0.057774417 -0.70124996
0.047598936 -0.057759482 -0.70106256
0.052609958 -0.057754494 -0.70100003
0.057625074 -0.057754494 -0.70099998
0.062640175 -0.057754491 -0.70099998
0.067533091 -0.057338007 -0.70123082
0.072643802 -0.056477495 -0.70075005
0.077630088 -0.056457568 -0.70050013
0.08258263 -0.056417719 -0.70000005
0.087173253 -0.056208283 -0.70000005
0.092598543 -0.055789404 -0.70000005
0.097606495 -0.055789404 -0.70000005
0.034577541 -0.054844387 -0.70400006
0.037725396 -0.054844387 -0.70400006
0.042761967 -0.054844387 -0.70400006
0.04779854 -0.054844387 -0.70400006
0.052835107 -0.054844387 -0.70400006
0.057871677 -0.054844387 -0.70400006
0.062908247 -0.054844387 -0.70400006
0.067944825 -0.054844387 -0.70400006
0.072981387 -0.054844387 -0.70400006
0.078003779 -0.054202739 -0.70387501
0.083171733 -0.053941447 -0.70322227
0.088082388 -0.053290814 -0.70276928
0.092697293 -0.053035121 -0.70278585
0.09729252 -0.052987237 -0.70286685
0.10270736 -0.053010367 -0.70206678
0.10761511 -0.052795094 -0.70200008
0.11270946 -0.052657861 -0.70164722
0.11766925 -0.052841887 -0.70093346
0.12238754 -0.052150831 -0.70057148
0.1277454 -0.05142745 -0.70050007
0.1329018 -0.051931638 -0.7003637
0.13773568 -0.052043676 -0.70033336
0.14249177 -0.051608685 -0.70011109
0.14797898 -0.051782679 -0.70020002
0.093757242 -0.049789131 -0.70400006
0.095016383 -0.049789131 -0.70400006
0.10886695 -0.049789131 -0.70400006
0.11228463 -0.049247496 -0.70400012
0.11705139 -0.049157225 -0.70400006
0.12200124 -0.049121857 -0.70350003
0.12703423 -0.04912186 -0.70350003
0.13206722 -0.04912186 -0.70350003
0.1371327 -0.048501741 -0.70366669
0.14240856 -0.048202302 -0.70300013
0.14744498 -0.048443109 -0.70283341
-0.047352016 -0.071087867 -0.69600004
-0.042372685 -0.071087867 -0.6960001
-0.037393343 -0.071087867 -0.69600004
-0.032779042 -0.070693322 -0.69580001
-0.029259823 -0.070362799 -0.69500005
-0.047113564 -0.069162868 -0.69800001
-0.042761967 -0.068876468 -0.69800007
-0.037500799 -0.069413476 -0.69800001
-0.032091022 -0.068995804 -0.69800007
-0.027486185 -0.068091184 -0.69730002
-0.022479761 -0.066785768 -0.69675004
-0.017513664 -0.066232935 -0.69749999
-0.012508892 -0.066149287 -0.69662499
-0.0075173271 -0.066090047 -0.69600004
-0.0025379905 -0.066090047 -0.6960001
0.0024428936 -0.066114008 -0.69625008
0.0074226772 -0.066114008 -0.69625008
0.01197854 -0.065850757 -0.69566673
0.01611134 -0.065372169 -0.69500005
-0.011908367 -0.064401314 -0.69800007
-0.0075389287 -0.064401306 -0.69800001
-0.0025452836 -0.064401306 -0.69800001
0.0024483611 -0.064401306 -0.69800001
0.0078581432 -0.063983619 -0.69800007
0.012678208 -0.063361965 -0.69760001
0.017587317 -0.062718146 -0.69721431
0.022390816 -0.062429927 -0.69699997
0.027224198 -0.062842488 -0.6967693
0.032212537 -0.061983477 -0.69684619
0.03730474 -0.061731152 -0.69616675
0.042311694 -0.061767951 -0.69658345
0.047300633 -0.061775189 -0.69666672
0.052209698 -0.061687112 -0.69566673
0.057186648 -0.061687112 -0.69566679
0.062005963 -0.061319496 -0.69622231
0.066920146 -0.061015546 -0.69614297
0.078263611 -0.060381539 -0.69500005
0.081992753 -0.060381539 -0.69500005
0.086343408 -0.060381543 -0.69500005
0.067989953 -0.059389137 -0.69800007
0.072320186 -0.058730707 -0.69762504
0.077325776 -0.058741346 -0.69775003
0.082287692 -0.058720075 -0.69749999
0.087539963 -0.058352675 -0.69760001
0.09228988 -0.05810773 -0.69766665
0.097175889 -0.058044367 -0.6969167
0.10234607 -0.056858268 -0.69653851
0.10740977 -0.056425102 -0.69700003
0.11268873 -0.056134284 -0.69650006
0.11767163 -0.056134287 -0.69650006
0.12258852 -0.056104399 -0.69612503
0.12769267 -0.056691706 -0.69566673
0.13257781 -0.056740981 -0.69627279
0.13717066 -0.056360628 -0.69620007
0.14248429 -0.056094438 -0.6960001
0.14746363 -0.056094438 -0.69600004
0.12292004 -0.054376967 -0.69800007
0.12728949 -0.05375044 -0.69800001
0.1319086 -0.054126352 -0.69800001
0.13727677 -0.054376964 -0.69800001
0.14253794 -0.053839952 -0.69800007
0.14684793 -0.05395928 -0.69800007
-0.047034524 -0.076195166 -0.69133329
-0.042098276 -0.076213531 -0.69150007
-0.037415054 -0.0759985 -0.6918
-0.032134581 -0.076049991 -0.69000006
-0.027198168 -0.076049991 -0.69000006
-0.022261757 -0.076049991 -0.69000006
-0.04721595 -0.073376209 -0.69400001
-0.042250916 -0.073376209 -0.69400001
-0.037279509 -0.073362887 -0.69387507
-0.032132078 -0.073350444 -0.69259995
-0.027177356 -0.072665654 -0.69194746
-0.022319477 -0.072519764 -0.6918
-0.017364398 -0.072493464 -0.69154996
-0.012420354 -0.07189402 -0.69174999
-0.0074669244 -0.071230859 -0.69133329
-0.0025209733 -0.071230859 -0.69133329
0.0024238077 -0.071816288 -0.6910001
0.0072470396 -0.071726695 -0.69133341
0.011943198 -0.071217299 -0.69119996
0.017229533 -0.071095265 -0.69000006
-0.025493952 -0.069015689 -0.69400001
-0.022390809 -0.069015689 -0.69400001
-0.017425781 -0.068392754 -0.69400001
-0.012460753 -0.068392761 -0.69400001
-0.0074903257 -0.068343043 -0.69349998
-0.0025293389 -0.068367898 -0.69375002
0.0024343305 -0.068392754 -0.69400001
0.0073993588 -0.068392754 -0.69400001
0.012747264 -0.068159103 -0.69336367
0.017421404 -0.067863666 -0.69216669
0.022239655 -0.067600042 -0.69230002
0.02719917 -0.067615055 -0.69244999
0.032149669 -0.067610256 -0.69240004
0.037010167 -0.067486338 -0.69247377
0.042235471 -0.067094512 -0.69235295
0.047292318 -0.066950239 -0.69200003
0.052419458 -0.067004211 -0.69217646
0.057502732 -0.066950247 -0.69200015
0.062459312 -0.066801399 -0.69206262
0.067733064 -0.066183291 -0.6914615
0.072749265 -0.06616541 -0.69145459
0.077925786 -0.065710224 -0.69200003
0.082636982 -0.06614054 -0.69000006
0.086956345 -0.066140547 -0.69000006
0.12663268 -0.065821707 -0.6910001
0.1332352 -0.06614054 -0.69000006
0.032845132 -0.064032242 -0.69400001
0.037189528 -0.064032242 -0.69400001
0.042154554 -0.064032242 -0.69400001
0.047119584 -0.064032242 -0.69400001
0.05208461 -0.064032242 -0.69400001
0.05704964 -0.064032242 -0.69400001
0.062280647 -0.063498311 -0.69400001
0.067466095 -0.063275501 -0.69390011
0.072228678 -0.062140379 -0.69375008
0.077054903 -0.062404066 -0.69371438
0.082664795 -0.063187674 -0.69311118
0.08807046 -0.062954701 -0.69283336
0.092824735 -0.062633231 -0.69235009
0.097756915 -0.062619947 -0.69220006
0.10266428 -0.06259279 -0.69190007
0.10759123 -0.061959442 -0.69174999
0.11234129 -0.061633591 -0.69107145
0.11730509 -0.061244346 -0.69066668
0.12242402 -0.061332114 -0.69166672
0.12749009 -0.061988279 -0.69253337
0.13252084 -0.062464226 -0.69200003
0.13718492 -0.062535249 -0.69125003
0.14245489 -0.062609307 -0.69086969
0.14717259 -0.061994053 -0.69073349
0.099872999 -0.05904879 -0.69400001
0.10297614 -0.05904879 -0.69400001
0.10816221 -0.058490552 -0.69371432
0.11282486 -0.058383323 -0.69349992
0.11778631 -0.058383323 -0.69349998
0.12279247 -0.058404598 -0.69375002
0.12780128 -0.05904879 -0.69400001
0.13276634 -0.05904879 -0.69400001
0.13799733 -0.058514856 -0.69400001
0.14269637 -0.058425866 -0.69400001
0.14760865 -0.058404595 -0.69375002
-0.047933534 -0.081209578 -0.68650007
-0.043022159 -0.081209578 -0.68650007
-0.038047452 -0.081697367 -0.68636364
-0.031948291 -0.080535129 -0.68600005
-0.025813546 -0.080535129 -0.68600005
-0.022746176 -0.080535129 -0.68600005
-0.048021264 -0.078888386 -0.6877501
-0.042746503 -0.078797296 -0.68755561
-0.03699977 -0.078594543 -0.68763644
-0.032025911 -0.078261212 -0.68766677
-0.027106194 -0.078261212 -0.68766683
-0.022181546 -0.078242086 -0.68750012
-0.017256293 -0.077595934 -0.68724996
-0.012505474 -0.07727173 -0.68671441
-0.0074165193 -0.076914713 -0.68666667
-0.0025039564 -0.076914713 -0.68666685
0.0024086074 -0.076914713 -0.68666667
0.0073193945 -0.07627999 -0.68650007
0.012230765 -0.07627999 -0.68650001
0.016732708 -0.076074734 -0.68650007
0.022037446 -0.075609125 -0.68600005
0.025104819 -0.075609125 -0.68600005
0.066207595 -0.075609125 -0.68600005
-0.012353024 -0.074594468 -0.68800002
-0.0074309213 -0.073976919 -0.68800008
-0.0025088182 -0.073976919 -0.68800008
0.0024132843 -0.074594468 -0.68800002
0.0077045448 -0.074347451 -0.68800002
0.012458221 -0.073746979 -0.68777788
0.017171269 -0.073323242 -0.68766677
0.022087248 -0.072694615 -0.68756253
0.026994342 -0.072660953 -0.68725002
0.032132253 -0.072410181 -0.68706256
0.037802257 -0.071915559 -0.68692315
0.042958107 -0.072018251 -0.68700004
0.047712076 -0.071915723 -0.68709093
0.052826416 -0.071454316 -0.68750006
0.057744943 -0.071454324 -0.6875
0.06259466 -0.071376152 -0.68675005
0.067247778 -0.071730509 -0.68660003
0.072629906 -0.071955837 -0.68640006
0.077287674 -0.072359473 -0.68633336
0.08196345 -0.072502308 -0.68657148
0.087279506 -0.071952753 -0.6863637
0.091808923 -0.07173086 -0.68660003
0.097300291 -0.071424723 -0.68655556
0.10213681 -0.071269788 -0.68657148
0.10737187 -0.070724331 -0.68640006
0.11221817 -0.070683122 -0.68600005
0.12387417 -0.070683122 -0.68600005
0.1257146 -0.070683122 -0.68600005
0.039329052 -0.0696541 -0.68800002
0.043020628 -0.0696541 -0.68800002
0.047942735 -0.0696541 -0.68800002
0.052864838 -0.0696541 -0.68800002
0.057786938 -0.0696541 -0.68800002
0.063078202 -0.069407083 -0.68800002
0.067618519 -0.069023907 -0.68787509
0.072711475 -0.068785705 -0.68755567
0.077447414 -0.0683937 -0.6877501
0.082397461 -0.068419009 -0.68800014
0.087432325 -0.068205625 -0.68776935
0.092191167 -0.067763723 -0.68762499
0.097057499 -0.067726202 -0.68725002
0.10197458 -0.067726888 -0.68725008
0.10749783 -0.067722276 -0.68720013
0.1128621 -0.067737043 -0.68693352
0.11773006 -0.067665696 -0.68700004
0.12269105 -0.067818426 -0.68693352
0.1278642 -0.06782493 -0.6870001
0.13268349 -0.067979865 -0.68714303
0.13762093 -0.067725986 -0.68724996
0.14236942 -0.067465387 -0.68728578
0.14736471 -0.067069106 -0.6868335
0.10700797 -0.064713739 -0.68800002
0.11213516 -0.06430205 -0.68800008
0.11743277 -0.064077392 -0.68780011
0.12263896 -0.064130679 -0.68742865
0.12788108 -0.063763909 -0.68775004
0.13100323 -0.063478649 -0.68800002
0.14853822 -0.064404972 -0.68800002
-0.047654245 -0.086862035 -0.68249995
-0.042628333 -0.086433277 -0.68246162
-0.037892595 -0.086869702 -0.68256247
-0.033598986 -0.086379834 -0.68214297
-0.047724064 -0.083309613 -0.68350005
-0.042834155 -0.083309613 -0.68350005
-0.037546307 -0.083125129 -0.68366671
-0.032898866 -0.083100341 -0.68280011
-0.02756682 -0.082902096 -0.68245465
-0.021907093 -0.082988136 -0.68235302
-0.017139535 -0.08258497 -0.68260008
-0.012254269 -0.082573235 -0.68249995
-0.0073725963 -0.082584985 -0.68260002
-0.0024889896 -0.082579121 -0.68255001
0.0022579203 -0.082288049 -0.6823889
0.0069072521 -0.081190906 -0.68220013
0.012150593 -0.081289843 -0.6820001
0.016419873 -0.080677703 -0.6820001
0.022925442 -0.080677703 -0.6820001
0.028007921 -0.080881745 -0.6820001
0.033293694 -0.080881752 -0.6820001
0.037359677 -0.080473647 -0.6820001
0.042906836 -0.080590248 -0.6820001
0.047524627 -0.080065534 -0.68200004
0.052403804 -0.080065534 -0.68200004
0.057282988 -0.080065534 -0.68200004
0.062162161 -0.080065534 -0.68200004
0.065211646 -0.080065534 -0.68200004
-0.011057833 -0.079072423 -0.68400002
-0.0073877173 -0.079072423 -0.68400002
-0.0024942323 -0.079072423 -0.68400002
0.0023992537 -0.079072423 -0.68400002
0.0072874087 -0.078400657 -0.68350005
0.012177317 -0.078400657 -0.68350005
0.017306639 -0.07800971 -0.68330008
0.022374738 -0.077808999 -0.68292862
0.027871499 -0.077086903 -0.68305892
0.032914054 -0.077067405 -0.68256253
0.037623666 -0.076805867 -0.68257153
0.042692348 -0.07708919 -0.68274999
0.047550425 -0.077046514 -0.68237501
0.052442223 -0.077060737 -0.6825
0.057356812 -0.077103436 -0.68287492
0.062270347 -0.077138536 -0.68318748
0.067314155 -0.077379614 -0.68300003
0.072329663 -0.077214643 -0.68266672
0.077639475 -0.077053532 -0.68276477
0.082653448 -0.076575011 -0.68285722
0.087597974 -0.076203004 -0.68250006
0.092724957 -0.075835526 -0.68250006
0.097607702 -0.075835526 -0.68250006
0.10249047 -0.075835519 -0.68250006
0.10688796 -0.075576365 -0.6820001
0.11034404 -0.075168252 -0.68200004
0.1188826 -0.075168252 -0.68200004
0.12299941 -0.075627379 -0.6820001
0.12762445 -0.075576365 -0.6820001
0.13169044 -0.075168252 -0.68200004
0.033595227 -0.074160777 -0.68400002
0.037877031 -0.074160777 -0.68400002
0.042770512 -0.074160777 -0.68400002
0.048002422 -0.073871836 -0.68360007
0.052489914 -0.073452622 -0.68312502
0.057408974 -0.073492616 -0.68350005
0.062321223 -0.073519714 -0.68375003
0.067580201 -0.073679194 -0.6833334
0.071689084 -0.073306039 -0.68366671
0.077024914 -0.072932869 -0.68400002
0.084365144 -0.072932869 -0.68400002
0.088035256 -0.074160777 -0.68400002
0.093113266 -0.073572576 -0.68342865
0.097714521 -0.073465951 -0.68325007
0.10278613 -0.073246583 -0.68311113
0.10745113 -0.072825491 -0.68300009
0.11239082 -0.072579369 -0.68246162
0.11718163 -0.072185174 -0.68275005
0.12188528 -0.072444424 -0.6827144
0.12730226 -0.07244207 -0.68299997
0.13246129 -0.072194204 -0.68283337
0.13776386 -0.07207863 -0.68276477
0.14275554 -0.071538381 -0.6824168
0.14741628 -0.071121536 -0.68233341
0.14369866 -0.069249138 -0.68400002
0.14792569 -0.069223829 -0.68375003
-0.047433861 -0.091958478 -0.67685717
-0.042400025 -0.091574691 -0.67658347
-0.037601911 -0.091675311 -0.67733335
-0.032728579 -0.091597244 -0.67675006
-0.028126752 -0.090841338 -0.6762858
-0.023623664 -0.090283081 -0.67600006
-0.0066967807 -0.090283081 -0.67600006
-0.00246506 -0.090283081 -0.67600006
0.0017666607 -0.090283081 -0.67600006
-0.047462899 -0.089563631 -0.67975003
-0.042848188 -0.089016937 -0.67957145
-0.037749946 -0.08959657 -0.68000001
-0.032604039 -0.088514939 -0.67919999
-0.027971443 -0.08761014 -0.6788125
-0.022605544 -0.087395214 -0.67789477
-0.017198883 -0.087596267 -0.67788219
-0.012164497 -0.087439656 -0.67749989
-0.0073229135 -0.087504208 -0.67800003
-0.0024723532 -0.087504216 -0.67800003
0.0023755596 -0.087440133 -0.67750001
0.0072127748 -0.08731284 -0.67650002
0.011932291 -0.087195724 -0.67653334
0.017494589 -0.086693108 -0.67640001
0.022697015 -0.086450279 -0.67640013
0.027981278 -0.086294092 -0.67644447
0.032613844 -0.08668457 -0.67633343
0.037461709 -0.08609885 -0.67650008
0.042301536 -0.08609885 -0.67650008
0.046743806 -0.085671596 -0.67600006
0.051942773 -0.085428886 -0.67600006
0.0036014402 -0.084713653 -0.68000001
0.0076106931 -0.083565168 -0.67959994
0.012106052 -0.084040992 -0.67949998
0.017413232 -0.08310926 -0.67953336
0.022342879 -0.082987309 -0.67900008
0.027871031 -0.083327413 -0.67866671
0.032726359 -0.08332742 -0.67866671
0.037726045 -0.08291509 -0.67814285
0.042254586 -0.083058454 -0.67800003
0.047263313 -0.082666792 -0.67825007
0.052251074 -0.082707427 -0.677706
0.057491031 -0.082548209 -0.67727786
0.062711775 -0.08185076 -0.67730772
0.067525223 -0.081463188 -0.67666674
0.072550461 -0.081241071 -0.67650008
0.077390291 -0.081241064 -0.67650008
0.081927255 -0.081111819 -0.67614293
0.086602584 -0.080979213 -0.67600006
0.09296456 -0.080921426 -0.67600006
0.097484142 -0.080979213 -0.67600006
0.10239594 -0.081038803 -0.67650008
0.10755967 -0.080574691 -0.67600006
0.11239593 -0.080574691 -0.67600006
0.11723217 -0.080574691 -0.67600006
0.12206843 -0.080574691 -0.67600006
0.12750922 -0.080574691 -0.67600006
0.13174093 -0.080574691 -0.67600006
0.023060916 -0.079830736 -0.68000001
0.027925786 -0.079830736 -0.68000001
0.030966328 -0.079830736 -0.68000001
0.038871739 -0.078610003 -0.68000001
0.068060949 -0.079830736 -0.68000001
0.072844714 -0.079742692 -0.67925
0.077676289 -0.079713337 -0.67900002
0.08274176 -0.079139851 -0.67857146
0.087518327 -0.078632176 -0.67810005
0.092102937 -0.078366935 -0.67791671
0.097274005 -0.078532889 -0.6785385
0.10250098 -0.078439407 -0.6785385
0.10767508 -0.077970684 -0.67800003
0.11253057 -0.077646494 -0.67788225
0.11757901 -0.077767082 -0.67800009
0.12229007 -0.078189068 -0.67800003
0.12752023 -0.078070156 -0.67835724
0.13248448 -0.077791601 -0.6773684
0.13783516 -0.077559777 -0.67711765
0.14276315 -0.07700932 -0.67666674
0.14760417 -0.07700932 -0.67666674
0.113061 -0.074947819 -0.68000001
0.11670964 -0.074947819 -0.68000001
0.13373667 -0.074947819 -0.68000001
0.13738534 -0.074947819 -0.68000001
0.1421456 -0.074282341 -0.67949998
0.14753813 -0.07382191 -0.67915386
-0.0473921 -0.09767618 -0.6719473
-0.042094048 -0.097543463 -0.67168742
-0.037410349 -0.097083032 -0.67138451
-0.033064224 -0.096367225 -0.67128575
-0.02764935 -0.095638171 -0.671
-0.02310604 -0.096154422 -0.67100006
-0.017276885 -0.095982336 -0.67100006
-0.012047788 -0.095638171 -0.671
-0.0072473073 -0.095638171 -0.671
-0.0024468272 -0.095638171 -0.671
0.0023536538 -0.095638171 -0.671
0.0053539542 -0.095638171 -0.671
-0.04668279 -0.094498798 -0.67433333
-0.042270139 -0.094320297 -0.67450005
-0.03741686 -0.094249927 -0.67400002
-0.032554276 -0.094127692 -0.67312503
-0.027580198 -0.093275808 -0.6726923
-0.022802755 -0.092689715 -0.67276478
-0.017494239 -0.092262588 -0.67276001
-0.012078133 -0.092254736 -0.67270005
-0.0073751183 -0.092722833 -0.67300004
-0.0024541204 -0.092900582 -0.67299998
0.0024651135 -0.092674211 -0.67264706
0.0071711936 -0.092240661 -0.67259997
0.012342938 -0.091871895 -0.67255002
0.01772261 -0.092473008 -0.67233336
0.022787325 -0.092754975 -0.67193758
0.027433295 -0.092261977 -0.67138469
0.032380771 -0.091489844 -0.67150003
0.037184827 -0.091489851 -0.67149997
0.042167619 -0.091043219 -0.67116666
0.047958221 -0.09081988 -0.671
0.052758705 -0.09081988 -0.671
0.056959122 -0.09081988 -0.671
0.013836793 -0.088937774 -0.67500001
0.017890602 -0.08929202 -0.67425001
0.023098355 -0.089046925 -0.67400002
0.027484642 -0.08881855 -0.67327279
0.032460134 -0.089294583 -0.67312503
0.037332051 -0.088826776 -0.67416668
0.042092659 -0.088694714 -0.67316669
0.047483239 -0.088240474 -0.67277783
0.052835334 -0.087776855 -0.67283344
0.057683166 -0.087391652 -0.67245001
0.062434018 -0.087308355 -0.67179996
0.067250401 -0.087321512 -0.67190003
0.072237127 -0.087239936 -0.67171419
0.077375129 -0.08646933 -0.67112499
0.082761712 -0.08600159 -0.671
0.087627441 -0.08666797 -0.67149997
0.092413962 -0.086651944 -0.67137504
0.096763119 -0.086403117 -0.671
0.10196364 -0.08600159 -0.671
0.10796423 -0.08600159 -0.671
0.11276472 -0.08600159 -0.671
0.062731408 -0.084090762 -0.67500001
0.067819208 -0.083571449 -0.67500007
0.072389595 -0.083484888 -0.67500007
0.077435508 -0.083944045 -0.67314285
0.082835414 -0.083580919 -0.6730001
0.087926507 -0.083339818 -0.6728667
0.092426173 -0.083459288 -0.67271435
0.097583868 -0.08345928 -0.67271435
0.10256775 -0.083548471 -0.67260009
0.10761169 -0.083180465 -0.67255563
0.11276563 -0.083013251 -0.67205876
0.11769661 -0.083081357 -0.67175007
0.12250245 -0.083081357 -0.67174995
0.127086 -0.082610421 -0.67130768
0.13238008 -0.081942499 -0.67192316
0.13769677 -0.081376545 -0.67261535
0.14283334 -0.081354484 -0.67171425
0.14756548 -0.081728712 -0.67153335
0.14241152 -0.079243749 -0.67500001
0.14724062 -0.079243749 -0.67500001
-0.047818661 -0.1017651 -0.66775012
-0.04257552 -0.10168459 -0.66784209
-0.037393786 -0.10155249 -0.66713339
-0.032256395 -0.1010538 -0.66700017
-0.027463926 -0.10157704 -0.66649997
-0.022691717 -0.1015581 -0.66637498
-0.018169157 -0.1014159 -0.66600001
-0.012723772 -0.1012451 -0.66600001
-0.0071933037 -0.1009035 -0.66600001
-0.036595635 -0.099103972 -0.67000002
-0.031914756 -0.098102726 -0.6695556
-0.027551375 -0.09829808 -0.66862512
-0.022624161 -0.098689727 -0.66846168
-0.017763183 -0.098391525 -0.66875011
-0.012334728 -0.098412849 -0.66850001
-0.0072165914 -0.098224558 -0.66812503
-0.0024349759 -0.098168865 -0.66775006
0.0023415918 -0.098150611 -0.66762495
0.0072104405 -0.097647481 -0.66742098
0.012389145 -0.097426444 -0.66745847
0.017954895 -0.097402439 -0.66747373
0.022538312 -0.097387239 -0.66736847
0.027266899 -0.096723832 -0.66686666
0.032147698 -0.096216738 -0.66666663
0.03751336 -0.096216746 -0.66666669
0.042413242 -0.095875666 -0.66637498
0.045814093 -0.09612111 -0.66600001
0.052961156 -0.09612111 -0.66600001
0.056534689 -0.096121117 -0.66600001
0.013135131 -0.094292864 -0.67000002
0.02811428 -0.094292864 -0.67000002
0.032272946 -0.093585916 -0.66925007
0.037408434 -0.093695745 -0.6695556
0.042901207 -0.093031213 -0.66835725
0.047725938 -0.09337391 -0.66775012
0.052498084 -0.093365237 -0.66768759
0.057371777 -0.093175076 -0.66758817
0.062499665 -0.09279345 -0.66716665
0.067749508 -0.092719115 -0.66734999
0.072617628 -0.092602633 -0.66733342
0.077322789 -0.091889761 -0.66653347
0.081973486 -0.090970278 -0.66622216
0.087284394 -0.090852477 -0.66633338
0.092611693 -0.090749703 -0.66655552
0.097272962 -0.090382241 -0.66600001
0.10239503 -0.090143129 -0.66600001
0.107415 -0.090655535 -0.66600001
0.11200953 -0.090484723 -0.66600001
0.11728474 -0.090143129 -0.66600001
0.12324063 -0.090143129 -0.66600001
0.12621857 -0.090143129 -0.66600001
0.074250042 -0.089481756 -0.67000002
0.07790187 -0.08851707 -0.66877782
0.082432806 -0.088057578 -0.66833341
0.087253273 -0.088697173 -0.66862512
0.092372574 -0.088769116 -0.66866666
0.097597361 -0.088183783 -0.66763639
0.10262797 -0.087765209 -0.66807145
0.10749323 -0.087680191 -0.66807145
0.11228811 -0.088035911 -0.66816682
0.11733161 -0.087517537 -0.66777784
0.12251236 -0.087347038 -0.66776484
0.12742467 -0.087177455 -0.66700006
0.13228594 -0.087226689 -0.66656262
0.13711643 -0.08714395 -0.66649997
0.14262226 -0.086563125 -0.66671437
0.14778887 -0.086631559 -0.6665833
0.12817498 -0.084670641 -0.67000002
0.13305421 -0.084046848 -0.66914296
0.13755602 -0.083942875 -0.66900009
0.14211658 -0.084046848 -0.6691429
0.14807238 -0.084428057 -0.66966671
-0.047430765 -0.10629245 -0.66233349
-0.042703029 -0.10572468 -0.66250008
-0.03794948 -0.10568502 -0.6622501
-0.03319861 -0.10505114 -0.66200006
-0.047550112 -0.10417651 -0.66400003
-0.042799711 -0.10417651 -0.66400003
-0.036931187 -0.10379111 -0.66371435
-0.032062948 -0.1034236 -0.66300011
-0.027299099 -0.10334605 -0.66250008
-0.02217043 -0.10317384 -0.66266674
-0.017617639 -0.10312174 -0.66233343
-0.012401076 -0.10297563 -0.66276932
-0.0071573025 -0.10277652 -0.6626668
-0.0024171991 -0.10221335 -0.66287506
0.0021897838 -0.10185629 -0.66323084
0.0069090766 -0.10155772 -0.66318196
0.012414347 -0.10111984 -0.66350007
0.017741146 -0.10104319 -0.66300011
0.022475468 -0.10100532 -0.66275007
0.027207106 -0.10096744 -0.66250008
0.032539237 -0.10096743 -0.66250008
0.037863888 -0.10094851 -0.66237509
0.041394852 -0.10029747 -0.66200006
0.058563188 -0.10029747 -0.66200006
0.061523244 -0.10029747 -0.66200006
0.014798904 -0.099408485 -0.66400003
0.015986504 -0.099408485 -0.66400003
0.024299707 -0.099408485 -0.66400003
0.027624989 -0.099170081 -0.66400003
0.032588352 -0.09873762 -0.66350007
0.037942372 -0.098775052 -0.66375005
0.042804409 -0.098175786 -0.66300011
0.04754189 -0.096972123 -0.66290921
0.052197352 -0.097440474 -0.66278583
0.057680726 -0.097795725 -0.66305882
0.062801547 -0.097471885 -0.66300005
0.06751129 -0.096828446 -0.6626668
0.072252147 -0.096828446 -0.6626668
0.077546582 -0.096780337 -0.66233349
0.082598865 -0.096494548 -0.66200012
0.08731804 -0.096053131 -0.66200012
0.092663057 -0.09578149 -0.66200012
0.096790224 -0.096053131 -0.66200012
0.10178003 -0.095543809 -0.66200006
0.077919558 -0.094418041 -0.66383338
0.082779989 -0.093361013 -0.66338468
0.087704048 -0.093306527 -0.66300011
0.092447281 -0.093306512 -0.66300011
0.097328663 -0.092848837 -0.66313338
0.10235285 -0.092760883 -0.66268414
0.10758419 -0.093080476 -0.66269249
0.11275259 -0.092211924 -0.66290921
0.1171517 -0.091719769 -0.66300011
0.12231147 -0.091862224 -0.66272736
0.12758408 -0.091379285 -0.66244453
0.13256465 -0.091384359 -0.66200012
0.13746221 -0.091870524 -0.66200018
0.14236572 -0.091318332 -0.66200012
0.14618091 -0.090790145 -0.66200006
0.11930774 -0.089872435 -0.66400003
0.12049534 -0.089872435 -0.66400003
0.12880854 -0.089872442 -0.66400003
0.13281429 -0.089770913 -0.66325003
0.13797314 -0.089384869 -0.66333342
0.14235866 -0.089208759 -0.66350001
0.14758682 -0.089141265 -0.66300005
-0.047319431 -0.11152851 -0.65761536
-0.042370003 -0.11139022 -0.65733337
-0.037676845 -0.11082844 -0.65750003
-0.03236033 -0.11074461 -0.65700001
-0.027072467 -0.11074461 -0.65700001
-0.022372143 -0.1101549 -0.65700001
-0.018259361 -0.1101549 -0.65700001
-0.047246214 -0.10883918 -0.65974998
-0.0425204 -0.10823295 -0.65966666
-0.037796453 -0.10821928 -0.65958333
-0.032464214 -0.10754744 -0.6591
-0.027144579 -0.10749029 -0.65875
-0.022406535 -0.10736801 -0.65800005
-0.017691994 -0.10732711 -0.65775007
-0.0124051 -0.10739195 -0.65815014
-0.0071056602 -0.10734751 -0.65787494
-0.0023973666 -0.10726671 -0.65737504
0.0023069105 -0.1072969 -0.65756261
0.0073926714 -0.10700781 -0.65770584
0.012884724 -0.10606696 -0.65725005
0.017580591 -0.10543714 -0.65700001
0.022280915 -0.10543714 -0.65700001
0.027568776 -0.10543714 -0.65700001
0.032856636 -0.10543714 -0.65700001
0.036969423 -0.10543714 -0.65700001
-0.0301472 -0.10473376 -0.66000003
-0.027196083 -0.10473376 -0.66000003
-0.022867782 -0.10433882 -0.66000009
-0.017752515 -0.10473376 -0.66000003
-0.012440508 -0.10473376 -0.66000003
-0.0071285004 -0.10473376 -0.66000003
-0.0024067154 -0.10473376 -0.66000003
0.0025661357 -0.10415797 -0.65957147
0.0079173734 -0.10377902 -0.65958333
0.0129223 -0.10341715 -0.65916669
0.017622439 -0.10332502 -0.65858334
0.022332232 -0.10331196 -0.65849996
0.027286533 -0.10346974 -0.65892309
0.032538962 -0.10331758 -0.65907139
0.037632436 -0.10328611 -0.65833336
0.042337239 -0.10268128 -0.65824997
0.047470585 -0.10268699 -0.65768421
0.052577045 -0.10213688 -0.65799993
0.057500463 -0.10201523 -0.65845454
0.062363561 -0.10152012 -0.65837502
0.067350939 -0.1015109 -0.65788889
0.072605103 -0.10141391 -0.65811116
0.077567339 -0.10079603 -0.65750003
0.082210019 -0.10071938 -0.65700001
0.087497883 -0.10071938 -0.65700001
0.092785746 -0.10071938 -0.65700001
0.097486064 -0.10071938 -0.65700001
0.10159885 -0.10071938 -0.65700001
0.043630682 -0.099994458 -0.66000003
0.047172021 -0.099402048 -0.66000003
0.052090548 -0.099796981 -0.66000009
0.056025367 -0.099994458 -0.66000003
0.063698262 -0.099994458 -0.66000003
0.067239605 -0.099402048 -0.66000003
0.072507285 -0.099341437 -0.65959996
0.077804632 -0.09932629 -0.6595
0.082746066 -0.098955683 -0.65939999
0.087622799 -0.098509386 -0.65853339
0.092516437 -0.098102793 -0.65875
0.097866431 -0.098234564 -0.65842855
0.10249145 -0.097787276 -0.65829414
0.10744691 -0.097493172 -0.65808702
0.11244226 -0.097046614 -0.65821052
0.1175107 -0.09613362 -0.65853846
0.12237474 -0.096504316 -0.65814286
0.12745929 -0.09678369 -0.65768421
0.13273153 -0.09660656 -0.6578235
0.13790591 -0.096546456 -0.65842861
0.14225216 -0.09662842 -0.65806663
0.14727357 -0.096470043 -0.65727282
0.11209656 -0.09407033 -0.66000003
0.11767089 -0.093543738 -0.66000003
0.12311406 -0.09367539 -0.66000009
0.12744236 -0.093477912 -0.66000003
0.13216415 -0.093477912 -0.66000003
0.13747616 -0.093731806 -0.66000009
0.14298491 -0.093280442 -0.66000003
0.14756966 -0.092797898 -0.65938884
-0.048327118 -0.11611853 -0.65222222
-0.042171989 -0.11560784 -0.65200001
-0.037361674 -0.11575414 -0.65200001
-0.033046965 -0.11540299 -0.65200001
-0.029781777 -0.1151689 -0.65200001
-0.021618815 -0.1151689 -0.65200001
-0.018120404 -0.1151689 -0.65200007
-0.047441144 -0.11381266 -0.65430015
-0.042122904 -0.11367368 -0.65350008
-0.037462179 -0.11312963 -0.65375006
-0.032772645 -0.11308604 -0.65350002
-0.027505638 -0.11305692 -0.65333331
-0.022261474 -0.11254153 -0.65375
-0.017576501 -0.1124879 -0.6534375
-0.013008063 -0.11228435 -0.65293336
-0.0076368582 -0.1118276 -0.65300012
-0.0023805015 -0.11178477 -0.65275013
0.0020551833 -0.1114912 -0.65239996
0.0075364024 -0.11110617 -0.65219998
0.012782248 -0.11048704 -0.65200001
0.017446797 -0.11048704 -0.65200001
0.022111349 -0.11048704 -0.65200001
0.025609761 -0.11048704 -0.65200001
-0.01586077 -0.10981957 -0.65500003
-0.01234626 -0.10981957 -0.65500003
-0.0070744958 -0.10981957 -0.65500003
-0.0023884827 -0.10981957 -0.65500003
0.0022975309 -0.10981957 -0.65500003
0.0080067189 -0.10935767 -0.65487504
0.012826136 -0.10851812 -0.65425003
0.017501822 -0.10789905 -0.65406263
0.022170471 -0.10784723 -0.65375018
0.027419368 -0.10779772 -0.65345013
0.032660544 -0.1071516 -0.65308344
0.037458606 -0.10694497 -0.65292311
0.042320605 -0.10654249 -0.65294451
0.047552198 -0.10627227 -0.65308338
0.052619193 -0.10692827 -0.6523636
0.057124671 -0.10702976 -0.65233338
0.062059246 -0.10669657 -0.65208334
0.067590721 -0.10639043 -0.65200001
0.072255269 -0.10639042 -0.65200001
0.07711418 -0.10600027 -0.65200001
0.082750514 -0.10580519 -0.65200001
0.086831987 -0.10580519 -0.65200007
0.049082614 -0.10495569 -0.65400004
0.052877262 -0.10452053 -0.65442866
0.057514522 -0.10426094 -0.65455562
0.062566213 -0.10383335 -0.65433341
0.067798048 -0.10378044 -0.65399998
0.072476909 -0.10378044 -0.65400004
0.07745339 -0.1032877 -0.65377784
0.082643516 -0.10301808 -0.65372223
0.087616168 -0.10311349 -0.65350008
0.09251307 -0.10313042 -0.65277797
0.097524054 -0.10249616 -0.65280008
0.10282906 -0.10174538 -0.65327269
0.10747218 -0.10134126 -0.65341669
0.11277924 -0.10103371 -0.65369999
0.11758491 -0.10132833 -0.65333337
0.12239052 -0.10121074 -0.65315396
0.12725849 -0.10102201 -0.65272731
0.13220908 -0.1006297 -0.65314287
0.13739608 -0.10025948 -0.65400004
0.14286628 -0.10052188 -0.65316671
0.1468313 -0.10058591 -0.65285718
0.11359035 -0.09923692 -0.65500003
0.11710486 -0.098648995 -0.65500003
0.12220927 -0.098900959 -0.65500003
0.12764838 -0.09923692 -0.65500003
0.1323344 -0.09923692 -0.65500003
0.13710409 -0.098900959 -0.65500003
0.14323163 -0.098819725 -0.65483338
0.14750761 -0.098611124 -0.65475005
-0.04777272 -0.12133354 -0.64691663
-0.042861134 -0.12067389 -0.64700001
-0.037785303 -0.12106357 -0.64642859
-0.032409433 -0.12053334 -0.64625001
-0.027774604 -0.12048648 -0.64600003
-0.022575276 -0.12048648 -0.64600003
-0.017706966 -0.12072247 -0.64539999
-0.014465005 -0.12087981 -0.64500004
-0.047307573 -0.11823285 -0.64954555
-0.042626083 -0.11788001 -0.64911765
-0.037203871 -0.11817898 -0.64925009
-0.032437287 -0.11769091 -0.64913338
-0.02757374 -0.1173905 -0.64883333
-0.022402748 -0.11757831 -0.64844447
-0.017330691 -0.11776868 -0.64768428
-0.012772359 -0.11774819 -0.64690012
-0.0075654662 -0.11775208 -0.64692008
-0.0024484664 -0.11754947 -0.64647377
0.0021338519 -0.11668883 -0.64646161
0.007461438 -0.11636718 -0.64566672
0.012668334 -0.11645731 -0.64616662
0.017290257 -0.1164573 -0.64616662
0.022310827 -0.11629298 -0.6457144
0.027664365 -0.11575848 -0.6455
0.031887755 -0.11553578 -0.64533335
0.037447799 -0.11509033 -0.64500004
0.042639077 -0.11509033 -0.64500004
0.047253549 -0.11509033 -0.64500004
0.052444827 -0.11509033 -0.64500004
-0.026784023 -0.11481562 -0.65000004
-0.022715062 -0.11481562 -0.65000004
-0.015739698 -0.11481562 -0.65000004
-0.012484527 -0.11458226 -0.65000004
-0.0076009603 -0.11421452 -0.64990008
-0.0023684264 -0.11414386 -0.64950007
0.0025100422 -0.11377615 -0.64940006
0.0074999589 -0.11347272 -0.64899999
0.012728335 -0.11293328 -0.64924997
0.017373212 -0.11293328 -0.64924997
0.022596775 -0.11292454 -0.6491999
0.027884668 -0.11234648 -0.64852631
0.03241628 -0.11216763 -0.64819998
0.037488587 -0.11212076 -0.64737499
0.042754769 -0.11249798 -0.64674991
0.047381755 -0.11249796 -0.64675003
0.05245978 -0.11257824 -0.64668435
0.057617903 -0.11238808 -0.64670599
0.062413611 -0.11248726 -0.64668757
0.067479461 -0.1125512 -0.64652646
0.072512306 -0.11223669 -0.64650005
0.07732746 -0.1117308 -0.64566666
0.082346611 -0.11179719 -0.64557147
0.087358102 -0.11156636 -0.64583337
0.091954254 -0.11095887 -0.64566672
0.097435921 -0.11045873 -0.64500004
0.1026272 -0.11045873 -0.64500004
0.10551125 -0.11045873 -0.64500004
0.14011978 -0.11045873 -0.64500004
0.03250657 -0.10898126 -0.65000004
0.037156809 -0.10898126 -0.65000004
0.042570066 -0.10932855 -0.64954555
0.047434684 -0.10902572 -0.64963645
0.052040599 -0.10929491 -0.64955562
0.057457387 -0.10947996 -0.64950007
0.062856585 -0.10902572 -0.64963645
0.067288131 -0.10882638 -0.64908344
0.072503194 -0.10881241 -0.64900005
0.077696733 -0.10818712 -0.64875007
0.08236976 -0.10822882 -0.64899999
0.087514058 -0.10814577 -0.64884996
0.092467852 -0.10738887 -0.64840901
0.097435042 -0.10748601 -0.64709103
0.10241118 -0.10736041 -0.64728588
0.10737087 -0.1072153 -0.64736372
0.11232347 -0.10735269 -0.64690489
0.11741984 -0.10674235 -0.64705563
0.12248033 -0.10665973 -0.6471765
0.12740827 -0.10719814 -0.64665014
0.1323013 -0.10635881 -0.64658827
0.1375365 -0.10634771 -0.64641666
0.14201696 -0.10662231 -0.64599997
0.1475718 -0.10737846 -0.64576924
0.098191246 -0.10431376 -0.65000004
0.10250933 -0.10381369 -0.65000004
0.1077031 -0.10357121 -0.6500001
0.11256473 -0.10325298 -0.6500001
0.1173735 -0.10373032 -0.65000004
0.12260502 -0.10373032 -0.65000004
0.12794116 -0.1032092 -0.64972734
0.13251096 -0.10288138 -0.64946163
0.13743906 -0.10272177 -0.64926326
0.14244318 -0.10307718 -0.64916658
0.14756364 -0.10329473 -0.64863163
-0.047572069 -0.12673572 -0.64194739
-0.042640492 -0.12675723 -0.64193332
-0.037621036 -0.12684529 -0.6415
-0.03252764 -0.12626734 -0.64100003
-0.027559631 -0.12588376 -0.64100003
-0.022400545 -0.12588376 -0.64100003
-0.018387921 -0.12588376 -0.64100003
-0.046828937 -0.12341405 -0.64387506
-0.04249933 -0.12309319 -0.64353859
-0.037277211 -0.12382226 -0.64300007
-0.0322272 -0.1233169 -0.64262497
-0.027624119 -0.12329257 -0.64249998
-0.022461703 -0.1233412 -0.64274997
-0.017280515 -0.12328108 -0.64243746
-0.012585782 -0.12275162 -0.64205271
-0.0075628906 -0.12218124 -0.64200002
-0.0023410777 -0.12204411 -0.64199996
0.0022510542 -0.12199726 -0.64174998
0.0074161771 -0.12199724 -0.64175004
0.012586202 -0.12146889 -0.64200008
0.016938675 -0.12116338 -0.64160007
0.021945892 -0.12041566 -0.6415
0.027503433 -0.12027072 -0.64174998
0.032680612 -0.12031757 -0.64200002
0.037788793 -0.12013017 -0.64100003
0.042374648 -0.12013017 -0.64100003
0.047533732 -0.12013017 -0.64100003
0.052692823 -0.12013017 -0.64100003
0.05555898 -0.12013017 -0.64100003
-0.00062062673 -0.1195363 -0.64400005
0.0025057672 -0.11904083 -0.64400005
0.0074393302 -0.11892112 -0.64380008
0.012615608 -0.11886544 -0.64350009
0.017219346 -0.11886544 -0.64350009
0.022589764 -0.11861531 -0.64300007
0.027556336 -0.11819518 -0.64300013
0.032504782 -0.11797622 -0.6430667
0.037430499 -0.11745887 -0.64263165
0.042469848 -0.11751414 -0.64243752
0.04751787 -0.11760222 -0.64242101
0.05267334 -0.11748345 -0.64282364
0.057368033 -0.11743495 -0.64200002
0.062409081 -0.11733431 -0.64194733
0.067702308 -0.11685885 -0.64200002
0.072238564 -0.11676829 -0.64150006
0.077105455 -0.11646543 -0.64141679
0.082516633 -0.11612518 -0.64112508
0.087714314 -0.11617475 -0.64140004
0.09281905 -0.11610265 -0.64100003
0.097595975 -0.1164223 -0.64100003
0.10243661 -0.11655015 -0.64100003
0.10791415 -0.11667801 -0.64100003
0.11230892 -0.11667801 -0.64099997
0.11697668 -0.11585607 -0.64100009
0.1386776 -0.1155273 -0.64100003
0.14269021 -0.11552729 -0.64100003
0.14727607 -0.1155273 -0.64100003
0.05754675 -0.11491188 -0.64400005
0.06215407 -0.11491188 -0.64400005
0.067337297 -0.11491189 -0.64400005
0.072820328 -0.11460929 -0.64360011
0.077380762 -0.11429892 -0.64344448
0.08246664 -0.11413082 -0.64322227
0.087519929 -0.11392367 -0.64277786
0.092669643 -0.11312459 -0.64261121
0.097670831 -0.11295649 -0.64275002
0.10242142 -0.11304002 -0.64264715
0.1076401 -0.11237665 -0.64273918
0.11253653 -0.11229976 -0.64230007
0.11739838 -0.11246353 -0.6412499
0.12279089 -0.11256832 -0.64099997
0.12737225 -0.11221359 -0.64180005
0.13237055 -0.11284239 -0.64157891
0.13756415 -0.11271268 -0.64194125
0.1425491 -0.11241548 -0.64233339
0.14753607 -0.11240324 -0.642591
0.1145623 -0.10913137 -0.64400005
0.11783363 -0.10953818 -0.64300001
0.12271103 -0.10949298 -0.64311117
0.12953608 -0.10913137 -0.64400005
0.13264279 -0.10924477 -0.64281827
0.13707109 -0.10896095 -0.64300013
0.14267126 -0.10846859 -0.64350003
0.14738943 -0.10797527 -0.64400005
-0.047744844 -0.1361049 -0.63500005
-0.042634048 -0.1361049 -0.63500005
-0.04754493 -0.13230968 -0.63655549
-0.042459495 -0.13248305 -0.63616669
-0.037721753 -0.13159116 -0.63572741
-0.032921843 -0.13081889 -0.63542867
-0.027301662 -0.13040517 -0.63500005
-0.022758732 -0.13040517 -0.63500005
-0.017647937 -0.13040517 -0.63500005
-0.012537142 -0.13040517 -0.63500005
-0.0074263471 -0.13040517 -0.63500005
-0.003451284 -0.13040517 -0.63500005
-0.047437005 -0.12940413 -0.63850003
-0.042298045 -0.12940414 -0.63850003
-0.037466846 -0.12893859 -0.63790005
-0.03232808 -0.12831709 -0.63729405
-0.027404001 -0.12803024 -0.637375
-0.022664607 -0.12786536 -0.63705885
-0.017424705 -0.12771602 -0.63676202
-0.012584525 -0.12746276 -0.63740003
-0.0074534402 -0.12743889 -0.63728005
-0.0023219299 -0.12732312 -0.63669997
0.0022329898 -0.12730275 -0.63660002
0.0072472766 -0.12685245 -0.6365239
0.012344378 -0.12629421 -0.63638467
0.017587418 -0.12604237 -0.63600016
0.022486253 -0.12585378 -0.63620013
0.02689687 -0.1257356 -0.63560009
0.032324281 -0.12584539 -0.63500005
0.037435077 -0.12584539 -0.63500005
0.049360264 -0.12698533 -0.63500005
0.057310391 -0.12584539 -0.63500005
0.061285459 -0.12584539 -0.63500005
-0.0071874051 -0.12434385 -0.63900006
-0.0023301379 -0.12434385 -0.63900006
0.002241408 -0.12434385 -0.63900006
0.007384398 -0.12434385 -0.63900006
0.012517584 -0.12367299 -0.63850003
0.017907906 -0.123194 -0.63807696
0.022779725 -0.12244186 -0.6380626
0.027422842 -0.12284022 -0.63778955
0.032439988 -0.12286251 -0.63727999
0.037540928 -0.12277059 -0.63679993
0.042528801 -0.12274303 -0.63616669
0.047609914 -0.12254352 -0.63619053
0.052281804 -0.12204611 -0.6360001
0.057400644 -0.12204613 -0.63600004
0.062474154 -0.12232617 -0.63588238
0.067706101 -0.12252214 -0.63575
0.072573632 -0.12226784 -0.63550007
0.077231057 -0.12192719 -0.63537514
0.082381099 -0.12197973 -0.63564992
0.087570593 -0.12208193 -0.63618755
0.092656337 -0.12203666 -0.63595003
0.097705767 -0.12195063 -0.63550013
0.10210153 -0.12171993 -0.6355716
0.10742941 -0.12145019 -0.63586682
0.11257041 -0.1214754 -0.63600016
0.1176517 -0.12086753 -0.63580012
0.12268707 -0.12078658 -0.63537508
0.12754045 -0.12084203 -0.63533342
0.13239892 -0.12069139 -0.63562506
0.13752376 -0.12065177 -0.63566673
0.14249031 -0.12014566 -0.63500005
0.14646538 -0.12014566 -0.63500005
0.058242846 -0.11975534 -0.63900006
0.06315726 -0.11952591 -0.63900006
0.067333214 -0.11908809 -0.63849998
0.072437592 -0.11903185 -0.63820004
0.077705979 -0.11852559 -0.63800007
0.082512781 -0.11849 -0.63792861
0.087611057 -0.11834753 -0.63807696
0.092433505 -0.11848389 -0.63833338
0.097338974 -0.11852255 -0.63853854
0.10258345 -0.11803681 -0.6385715
0.10717001 -0.11833151 -0.63863635
0.11264138 -0.1189233 -0.63845462
0.11757811 -0.11793842 -0.63786674
0.12243171 -0.11727865 -0.63750005
0.12752755 -0.11707834 -0.63752377
0.13252544 -0.11738145 -0.63772744
0.13749307 -0.1174289 -0.63790005
0.14253707 -0.11780219 -0.63775003
0.1475196 -0.11767095 -0.63735002
0.1171015 -0.11401971 -0.63900006
0.1211016 -0.11287259 -0.63900006
-0.047368895 -0.14068805 -0.63000005
-0.042861737 -0.14068805 -0.63000005
-0.047505908 -0.13825504 -0.63181251
-0.042395517 -0.13817583 -0.63145012
-0.037322339 -0.13764061 -0.6316002
-0.032872152 -0.13711168 -0.6310001
-0.027605711 -0.13744411 -0.63112509
-0.022618687 -0.13753307 -0.63110012
-0.017685574 -0.13732396 -0.63104355
-0.012588389 -0.13655362 -0.6310001
-0.0073756687 -0.13630767 -0.63066679
-0.00229975 -0.13630769 -0.63066673
0.0020581742 -0.13619827 -0.63063645
0.0058738999 -0.13536952 -0.63025004
0.012350944 -0.13503319 -0.63000005
0.017421497 -0.13503319 -0.63000005
-0.047633402 -0.13464613 -0.63350004
-0.042485621 -0.13449736 -0.63280004
-0.037222642 -0.13380471 -0.63311106
-0.032370776 -0.13286482 -0.63281244
-0.027508615 -0.13285503 -0.63249999
-0.022675237 -0.13276801 -0.63268751
-0.017601406 -0.13289768 -0.63330001
-0.012486717 -0.1327159 -0.63243747
-0.0073941858 -0.13267635 -0.63225013
-0.0021800329 -0.13237859 -0.63233334
0.0022182572 -0.13214034 -0.63239998
0.0071911067 -0.13240962 -0.63161904
0.012379904 -0.13252009 -0.63150007
0.017450713 -0.13242596 -0.63105023
0.022523064 -0.13238794 -0.63087505
0.027591771 -0.13177899 -0.63066685
0.032667689 -0.131779 -0.63066673
0.037393283 -0.13185534 -0.63061547
0.042419694 -0.13170812 -0.63071442
0.047331452 -0.131779 -0.63066673
0.052111529 -0.13146128 -0.63050008
0.057468098 -0.13117836 -0.63050002
0.062133424 -0.13073234 -0.63016677
0.06700024 -0.13050932 -0.63000005
0.0078811375 -0.12942538 -0.63300002
0.012558554 -0.12890473 -0.63272727
0.017486021 -0.12872058 -0.6323334
0.022725444 -0.12832883 -0.63200015
0.027650017 -0.12808554 -0.63200003
0.032730613 -0.12806135 -0.63187504
0.037272289 -0.12813768 -0.63225001
0.042341691 -0.12751076 -0.63196003
0.047374442 -0.12766275 -0.63242108
0.052468088 -0.12772171 -0.63254178
0.057627603 -0.1281359 -0.63224995
0.062729001 -0.12779993 -0.63186371
0.067632571 -0.12738961 -0.6319049
0.072420232 -0.12743407 -0.63081831
0.077355087 -0.12704074 -0.63090914
0.082342386 -0.12675044 -0.63100004
0.087592445 -0.12715454 -0.63117409
0.092528902 -0.12735675 -0.63120013
0.09760911 -0.12735675 -0.63120008
0.10256563 -0.12666424 -0.63113344
0.10717584 -0.12582147 -0.63072735
0.1127246 -0.12551905 -0.63050008
0.11753801 -0.12557088 -0.63044453
0.1225711 -0.12546726 -0.63055563
0.12715749 -0.12545244 -0.63057154
0.13087125 -0.12505266 -0.63100004
0.052684367 -0.12450905 -0.634
0.057787109 -0.12450905 -0.634
0.062511884 -0.12375029 -0.634
0.065157749 -0.1233709 -0.634
0.073662326 -0.12450905 -0.634
0.077631131 -0.12450905 -0.634
0.082733877 -0.12450905 -0.634
0.087269656 -0.12450905 -0.634
0.092372403 -0.12450905 -0.634
0.097475141 -0.12450905 -0.634
0.10288044 -0.12393496 -0.63325
0.10772905 -0.12369812 -0.63244444
0.11259934 -0.12339869 -0.63155556
0.117382 -0.12298232 -0.63246155
0.12248048 -0.12310281 -0.63221431
0.12756273 -0.12298232 -0.63246155
0.13271135 -0.12325552 -0.631706
0.13748147 -0.12295889 -0.63161904
0.14263259 -0.12302501 -0.63147837
0.14761059 -0.12246628 -0.63140011
0.14850262 -0.11995645 -0.634
-0.04758681 -0.14263964 -0.62757152
-0.042686209 -0.14236324 -0.62741673
-0.037671223 -0.14136763 -0.62800014
-0.032780878 -0.14089258 -0.62755561
-0.027540362 -0.14069255 -0.62750006
-0.022503035 -0.14077629 -0.62787497
-0.01769702 -0.14069207 -0.62777787
-0.012398938 -0.14024143 -0.62800002
-0.0069195614 -0.14057979 -0.62762499
-0.0026626186 -0.14054219 -0.62766671
0.0022001755 -0.14012977 -0.62750006
0.0050028753 -0.14001811 -0.62700003
-0.032106198 -0.13933557 -0.62900007
-0.029856194 -0.13933557 -0.62900001
-0.015793685 -0.13933557 -0.62900001
-0.012169532 -0.13875669 -0.62857145
-0.0073503293 -0.13866021 -0.6285001
-0.0022918493 -0.13866021 -0.62850004
0.0023922725 -0.13848431 -0.62855554
0.007376635 -0.13753358 -0.62810534
0.012149941 -0.13716444 -0.62792867
0.017478416 -0.13728638 -0.62778944
0.022245143 -0.13708699 -0.62757146
0.027445937 -0.13671342 -0.6273334
0.032313876 -0.13636224 -0.62744457
0.037529789 -0.13610019 -0.62709999
0.04245843 -0.13574088 -0.62700003
0.047616981 -0.13551576 -0.62700003
0.052663386 -0.13551576 -0.62700003
0.057709794 -0.13551576 -0.62700003
0.061074067 -0.13551576 -0.62700003
0.0089563364 -0.13481887 -0.62900001
0.022446752 -0.13476528 -0.62874997
0.027496977 -0.13414712 -0.6285001
0.032555457 -0.13414711 -0.62849998
0.037584011 -0.13404085 -0.62800008
0.042621274 -0.13398725 -0.62775004
0.047452353 -0.13412687 -0.62811112
0.05269533 -0.13367692 -0.6285001
0.057270609 -0.13354741 -0.62833345
0.062428199 -0.1330348 -0.62815791
0.067435622 -0.13272107 -0.62788242
0.072385289 -0.13231431 -0.62784004
0.07743942 -0.13231644 -0.62785006
0.082438789 -0.13223062 -0.62743998
0.087523557 -0.13171907 -0.62768745
0.092376567 -0.13151552 -0.62761116
0.097572193 -0.13108248 -0.62733334
0.10190608 -0.13092451 -0.62725002
0.10761315 -0.13101342 -0.62700003
0.11097743 -0.13101342 -0.62700003
0.1188274 -0.13101342 -0.62700003
0.12107025 -0.13101342 -0.62700003
0.079268895 -0.129173 -0.62900001
0.082643896 -0.129173 -0.62900001
0.086018898 -0.129173 -0.62900001
0.10322855 -0.12921736 -0.62800002
0.1078379 -0.12832703 -0.62811762
0.11243203 -0.12848996 -0.62794131
0.11745996 -0.1283244 -0.62805277
0.12265457 -0.12848228 -0.62777776
0.12777315 -0.12794684 -0.62770003
0.13235949 -0.12740496 -0.62782353
0.13741997 -0.12735362 -0.62794745
0.1423375 -0.12707645 -0.62806261
0.14743096 -0.126735 -0.62771434
0.14733146 -0.1246563 -0.62900001
-0.047466666 -0.14725375 -0.62247634
-0.04245127 -0.14690648 -0.62207699
-0.037291307 -0.14663856 -0.62166673
-0.032287825 -0.14663857 -0.62166679
-0.027146194 -0.14678299 -0.62168753
-0.022438871 -0.14695168 -0.62164295
-0.017524594 -0.14601882 -0.62166673
-0.012280476 -0.14560118 -0.62200004
-0.007274312 -0.14560118 -0.62200004
-0.0022645004 -0.1453671 -0.62100005
-0.046955362 -0.14450431 -0.62450004
-0.042479385 -0.14447525 -0.62437505
-0.037427519 -0.14381252 -0.62393337
-0.032279916 -0.14330284 -0.62366664
-0.027386567 -0.14326732 -0.62400007
-0.022360342 -0.14323859 -0.62387502
-0.017225772 -0.1430465 -0.62361908
-0.012308117 -0.14256899 -0.62340003
-0.0074419179 -0.14285573 -0.62331825
-0.002148085 -0.14272578 -0.62299997
0.0027395971 -0.14234914 -0.62244004
0.0077441833 -0.14224921 -0.62200016
0.012605241 -0.1420553 -0.62200016
0.017756512 -0.14169171 -0.62200004
0.02264346 -0.14176795 -0.62194735
0.027561223 -0.14108267 -0.62215394
0.032479025 -0.1407795 -0.62166679
0.007781534 -0.13957147 -0.625
0.012615288 -0.13908583 -0.62450004
0.016901398 -0.13931005 -0.62466669
0.022662356 -0.13904861 -0.62433338
0.027321978 -0.13889883 -0.62450004
0.032488439 -0.13838923 -0.62427276
0.037410952 -0.13850987 -0.62315798
0.042469129 -0.13823788 -0.62305009
0.047475263 -0.13772877 -0.6231364
0.05219904 -0.13753213 -0.62264705
0.057282072 -0.13730291 -0.62234998
0.062523328 -0.13698755 -0.62245005
0.06747207 -0.13681 -0.62308335
0.072407506 -0.13692911 -0.6232
0.077423334 -0.13692909 -0.62319994
0.082439154 -0.13692909 -0.6232
0.08734218 -0.13731362 -0.62240005
0.092333958 -0.13711451 -0.62181258
0.097153753 -0.13631563 -0.62166679
0.10188003 -0.13585067 -0.62166667
