# .PCD v0.7 - Point Cloud Data file format
VERSION 0.7
FIELDS x y z
SIZE 4 4 4
TYPE F F F
COUNT 1 1 1
WIDTH 1462
HEIGHT 1
VIEWPOINT 0 0 0 1 0 0 0
POINTS 1462
DATA ascii
0.037575725 0.34928888 -1.108
0.040548302 0.34928888 -1.108
0.027667135 0.35127798 -1.108
0.032621428 0.35127801 -1.108
0.037575725 0.35127798 -1.108
0.042034592 0.35177523 -1.108
0.053429477 0.35326704 -1.108
0.05739291 0.35326704 -1.108
0.062347215 0.35326704 -1.108
0.067301504 0.35326704 -1.108
0.072255805 0.35326704 -1.108
0.077210099 0.35326704 -1.108
0.082164399 0.35326704 -1.108
0.087118693 0.35326704 -1.108
0.091082126 0.35326704 -1.108
0.063338071 0.35525611 -1.108
0.092072986 0.35525614 -1.108
0.098018155 0.35525614 -1.108
0.10198158 0.35525611 -1.108
0.10792674 0.35724518 -1.108
0.11288103 0.35724518 -1.108
0.11833076 0.35774246 -1.108
0.12278964 0.35823971 -1.108
0.12774394 0.35923427 -1.108
0.13269824 0.35923424 -1.108
0.13765253 0.35923427 -1.108
0.14293711 0.35857123 -1.108
0.14716478 0.35843861 -1.108
-0.047401704 0.33667085 -1.1025001
-0.04293675 0.33693528 -1.1017501
-0.037491217 0.33719969 -1.1010001
-0.032568224 0.33719969 -1.1010001
-0.028629825 0.33719969 -1.1010001
-0.022722227 0.33917624 -1.1010001
-0.01779923 0.33917621 -1.1010001
-0.012876234 0.33917624 -1.1010001
-0.0079532359 0.33917621 -1.1010001
-0.0030302394 0.33917624 -1.1010001
0.00090815831 0.33917621 -1.1010001
-0.047466196 0.34010038 -1.1040001
-0.042529788 0.34010038 -1.1040001
-0.037593372 0.34010038 -1.1040001
-0.032262053 0.34089315 -1.1040001
-0.027720552 0.34109133 -1.1040001
-0.022784142 0.34208226 -1.1040001
-0.01784773 0.34208226 -1.1040001
-0.012911318 0.34307322 -1.1040001
-0.0069876253 0.34307325 -1.1040001
-0.0020512138 0.34307325 -1.1040001
0.0028829966 0.34291834 -1.1035001
0.007810981 0.34260845 -1.1025001
0.012740686 0.34260842 -1.1025
0.017670389 0.34260845 -1.1025001
0.022600096 0.34260845 -1.1025
0.027529797 0.34260842 -1.1025001
0.032459505 0.34260845 -1.1025002
0.037389208 0.34260845 -1.1025001
0.04229793 0.34344086 -1.1020001
0.047184333 0.34312922 -1.1010001
0.0038724795 0.34604606 -1.1040001
0.0078216083 0.34604606 -1.1040001
0.010783455 0.34604606 -1.1040001
0.033490948 0.34604606 -1.1040001
0.037440076 0.34604606 -1.1040001
0.042771399 0.34683883 -1.1040001
0.0473129 0.34703702 -1.1040001
0.052178316 0.3465668 -1.1025
0.057651628 0.34648076 -1.1016001
0.062937923 0.34708223 -1.1010001
0.067860924 0.34708223 -1.1010001
0.072783917 0.34708223 -1.1010001
0.077849858 0.34771273 -1.1030002
0.082855061 0.34802794 -1.1040001
0.087710164 0.34771273 -1.1030002
0.092804104 0.34642339 -1.1010001
0.096414298 0.34708223 -1.1010001
0.10232189 0.34905872 -1.1010001
0.11216789 0.34905872 -1.1010001
0.11709088 0.34905872 -1.1010001
0.12299848 0.34905872 -1.1010001
0.14269046 0.34905872 -1.1010001
0.0473129 0.35000983 -1.1040001
0.052249309 0.35000986 -1.1040001
0.057185717 0.35000983 -1.1040001
0.062122133 0.35000986 -1.1040001
0.067058541 0.35000983 -1.1040001
0.071994953 0.35000986 -1.1040001
0.077918649 0.35000986 -1.1040001
0.082855061 0.35000983 -1.1040001
0.087791465 0.35000986 -1.1040001
0.093056977 0.35067046 -1.1040001
0.097664289 0.35100079 -1.1040001
0.10292979 0.35265237 -1.1040001
0.10748752 0.35282326 -1.1035001
0.11232071 0.35250443 -1.1025001
0.11740993 0.3529827 -1.1040001
0.1228706 0.35259318 -1.1034001
0.12753823 0.35279828 -1.1028001
0.13259435 0.35221061 -1.1022002
0.13747595 0.35298958 -1.1034001
0.14209199 0.35298264 -1.1040001
0.1470284 0.3529827 -1.1040001
0.12728277 0.35595554 -1.1040001
0.13221917 0.35595551 -1.1040001
0.13715558 0.35595554 -1.1040001
0.1411047 0.35595551 -1.1040001
0.14900295 0.35595551 -1.1040001
-0.047165234 0.33203596 -1.097
-0.0412791 0.3340053 -1.097
-0.037355009 0.3340053 -1.097
-0.032449901 0.3340053 -1.097
-0.026563765 0.3359746 -1.097
-0.022639677 0.33597463 -1.097
-0.017734565 0.3359746 -1.097
-0.012829453 0.33597463 -1.097
-0.0069433195 0.3359746 -1.097
0.0038479259 0.33794394 -1.097
0.013658148 0.33794394 -1.097
0.023468371 0.33794394 -1.097
0.02739246 0.33794394 -1.097
0.032297574 0.33794397 -1.097
0.037202682 0.33794394 -1.097
0.041617285 0.33942091 -1.097
0.047012907 0.33991325 -1.097
0.049955972 0.34188259 -1.097
0.05289904 0.34188259 -1.097
0.057804152 0.34286726 -1.097
0.062709264 0.34385192 -1.097
0.067614377 0.34385192 -1.097
0.072519489 0.34385192 -1.097
0.077424608 0.34385192 -1.097
0.082329705 0.34385192 -1.097
0.087234825 0.34385192 -1.097
0.091158912 0.34385192 -1.097
0.096064024 0.34385192 -1.097
0.099007092 0.34582123 -1.097
0.10342169 0.34631357 -1.097
0.10783629 0.3468059 -1.097
0.1127414 0.34582123 -1.097
0.11764651 0.34582123 -1.097
0.12255162 0.34582123 -1.097
0.12745672 0.34779057 -1.097
0.13236186 0.34779057 -1.097
0.13726696 0.34779057 -1.097
0.14707717 0.34779057 -1.097
-0.048014592 0.32818204 -1.0940001
-0.042144552 0.329164 -1.0940001
-0.037252855 0.329164 -1.0940001
-0.034317836 0.329164 -1.0940001
-0.042144552 0.33112794 -1.0940001
-0.037252855 0.33112794 -1.0940001
-0.032361157 0.33112794 -1.0940001
-0.027795572 0.33243725 -1.0940001
-0.022577761 0.33309191 -1.0940001
-0.017686063 0.33309188 -1.0940001
-0.013185704 0.3323063 -1.0940001
-0.0075765578 0.33243725 -1.0940001
-0.0026196376 0.3323063 -1.0940001
0.0009023844 0.33309188 -1.0940001
-0.0088810101 0.33505583 -1.0940001
-0.0030109733 0.33505583 -1.0940001
0.0028590634 0.33505583 -1.0940001
0.0077507608 0.33603776 -1.0940001
0.012153288 0.33554679 -1.0940001
0.017534155 0.33603778 -1.0940001
0.021936683 0.33554679 -1.0940001
0.02731755 0.33505583 -1.0940001
0.032209247 0.33505583 -1.0940001
0.037100945 0.33505583 -1.0940001
0.041992642 0.33603776 -1.0940001
0.048351847 0.3375107 -1.0940001
0.052754376 0.33898368 -1.0940001
0.057646073 0.33898371 -1.0940001
0.061559428 0.33898368 -1.0940001
0.069386147 0.33898368 -1.0940001
0.072321162 0.33898368 -1.0940001
0.077212863 0.33898371 -1.0940001
0.12123813 0.33898368 -1.0940001
0.058624409 0.34094763 -1.0940001
0.062537767 0.34094763 -1.0940001
0.067429468 0.34094763 -1.0940001
0.072321162 0.34094763 -1.0940001
0.077212855 0.34094763 -1.0940001
0.082104549 0.34094763 -1.0940001
0.086996257 0.34094763 -1.0940001
0.090909608 0.34094763 -1.0940001
0.098736323 0.34291157 -1.0940001
0.10264968 0.34291157 -1.0940001
0.10754138 0.34291157 -1.0940001
0.11292224 0.34242061 -1.0940001
0.11732477 0.34192961 -1.0940001
0.12221648 0.34192961 -1.0940001
0.12710819 0.34291157 -1.0940001
0.13199988 0.34389359 -1.0940001
0.13786992 0.34389353 -1.0940001
0.1427616 0.34389356 -1.0940001
0.14765331 0.34389359 -1.0940001
-0.047773205 0.32262534 -1.0885
-0.042333063 0.32290968 -1.0888001
-0.037986569 0.32250467 -1.0870001
-0.033126172 0.32315511 -1.087
-0.041990459 0.32600373 -1.09
-0.037116647 0.32600373 -1.09
-0.031852931 0.32678643 -1.09
-0.02714394 0.32721025 -1.0888001
-0.022474574 0.32766142 -1.0890001
-0.017605234 0.3276614 -1.0890001
-0.012454049 0.32701692 -1.0887144
-0.0080600604 0.32721025 -1.0888001
-0.0032749295 0.32701692 -1.0887144
0.0025667462 0.32813349 -1.0887144
0.0077117942 0.32848755 -1.0885
0.012971197 0.3287735 -1.0888001
0.017446004 0.32848755 -1.0885
0.022313109 0.32848758 -1.0885
0.027180212 0.32848755 -1.0885
0.031537857 0.3287484 -1.08775
0.037835635 0.32900923 -1.0870001
0.042696029 0.32900923 -1.087
0.04755643 0.32900923 -1.0870001
0.0038233721 0.33187401 -1.09
0.0077224215 0.33187401 -1.09
0.012596233 0.33187401 -1.09
0.017470043 0.33187401 -1.09
0.022343857 0.33187401 -1.09
0.027217668 0.33187401 -1.09
0.03209148 0.33187401 -1.09
0.037940055 0.33187401 -1.09
0.043138787 0.33252627 -1.09
0.047687676 0.33285242 -1.0900002
0.052452318 0.33216599 -1.08775
0.057356261 0.3323957 -1.0885
0.062179819 0.33216599 -1.08775
0.067484058 0.33242413 -1.087
0.072520994 0.33249897 -1.0882
0.077690892 0.33291197 -1.087
0.082551293 0.33291197 -1.0870001
0.087411687 0.33291197 -1.087
0.091786042 0.33437547 -1.087
0.097132482 0.33486333 -1.087
0.11365783 0.33486333 -1.087
0.11657407 0.33486333 -1.087
0.052561488 0.33578753 -1.09
0.0574353 0.33578753 -1.09
0.062634036 0.33643979 -1.09
0.066793017 0.33657023 -1.09
0.0730315 0.33578753 -1.09
0.077905312 0.33578753 -1.09
0.082779132 0.33676594 -1.0900002
0.087652937 0.33676589 -1.09
0.092916645 0.33852699 -1.09
0.097400561 0.33872265 -1.09
0.10213362 0.33825788 -1.0885
0.1075545 0.33796921 -1.0882
0.11194491 0.33849025 -1.0892501
0.1168958 0.33774427 -1.09
0.12371914 0.33774427 -1.09
0.12810557 0.33823347 -1.09
0.13204643 0.33873892 -1.0890001
0.13775733 0.33897945 -1.0892501
0.14258799 0.33796921 -1.0882
0.1473403 0.33854651 -1.0888001
-0.047865476 0.31306553 -1.0818001
-0.042689301 0.31418917 -1.0830001
-0.038762867 0.31375402 -1.0815001
-0.047465976 0.31666762 -1.0815002
-0.04263017 0.31666762 -1.0815001
-0.038150314 0.31659719 -1.0806
-0.031464122 0.31768116 -1.08
-0.02711793 0.31816587 -1.08
-0.022288835 0.31816587 -1.08
-0.017459735 0.31816584 -1.08
-0.012389183 0.31743878 -1.08
-0.0079947039 0.31758419 -1.08
-0.0032483905 0.31775036 -1.08
0.0024361478 0.3183597 -1.08
0.026967965 0.31913525 -1.08
-0.036878284 0.32002175 -1.0830001
-0.032035775 0.32066983 -1.0830001
-0.027193259 0.32196593 -1.0830001
-0.022350747 0.32196593 -1.0830001
-0.017508235 0.32196593 -1.0830001
-0.012665723 0.32196593 -1.0830001
-0.0078232102 0.32196593 -1.0830001
-0.0029806988 0.32196593 -1.0830001
0.0032135078 0.32238686 -1.0818001
0.0076562166 0.32226777 -1.08075
0.012493122 0.32234257 -1.0810001
0.017333811 0.32249209 -1.0815001
0.022169616 0.32249209 -1.0815001
0.027958756 0.32234257 -1.0810001
0.032440942 0.3223666 -1.0800002
0.03662616 0.32301286 -1.08
0.043386899 0.32495168 -1.08
0.047250174 0.32495171 -1.0800002
0.053045094 0.32495171 -1.0800002
0.057874195 0.32398227 -1.08
0.062703297 0.32398227 -1.08
0.06753239 0.32398227 -1.08
0.072361492 0.32398227 -1.08
0.077512525 0.32430542 -1.0800002
0.080088042 0.32495168 -1.08
0.010578335 0.3258543 -1.0830001
0.032853886 0.3258543 -1.0830001
0.037696403 0.3258543 -1.0830001
0.04157041 0.3258543 -1.0830001
0.052223936 0.32779852 -1.0830001
0.057066452 0.32779855 -1.0830001
0.063361719 0.32828456 -1.0830001
0.067397147 0.3284466 -1.0830001
0.073046736 0.32828456 -1.0830001
0.077352069 0.3285436 -1.08225
0.082133606 0.32831657 -1.0815001
0.087391332 0.32857293 -1.0807501
0.092643701 0.32882929 -1.08
0.097472802 0.32882929 -1.0800002
0.1023019 0.32882929 -1.08
0.107131 0.32882929 -1.0800002
0.11253958 0.32805377 -1.08
0.11678918 0.32882929 -1.08
0.092901036 0.33168688 -1.0830001
0.098227799 0.33217293 -1.0830001
0.10244399 0.33219957 -1.0815001
0.10727978 0.33219957 -1.0815001
0.11252008 0.33148384 -1.08075
0.11818688 0.33172244 -1.0810001
0.12269583 0.33301497 -1.0810001
0.12759151 0.33316898 -1.0815001
0.14286631 0.3327069 -1.08
0.14769542 0.3327069 -1.0800002
0.13357814 0.33557528 -1.0830001
0.13648365 0.33557528 -1.0830001
-0.047750041 0.30809832 -1.077
-0.04245279 0.30858168 -1.077
-0.038600244 0.30858168 -1.077
-0.0453422 0.31051508 -1.077
-0.04245279 0.31051508 -1.077
-0.036866602 0.31167516 -1.077
-0.032821424 0.3124485 -1.0770001
-0.02800574 0.31244847 -1.077
-0.02299743 0.3132219 -1.077
-0.016929667 0.31293187 -1.077
-0.012870734 0.31189609 -1.0770001
-0.0075872415 0.31206182 -1.077
-0.0027234012 0.3122068 -1.077
0.0020441259 0.3132219 -1.077
0.02207737 0.31438193 -1.077
0.026893053 0.31438193 -1.077
0.0047409087 0.31631535 -1.077
0.0076303184 0.31728208 -1.077
0.012446003 0.31728208 -1.0770001
0.017261686 0.31728205 -1.077
0.02207737 0.31728205 -1.0770001
0.02833776 0.31679869 -1.077
0.032350831 0.3176043 -1.077
0.035561286 0.31824878 -1.077
0.057713427 0.31824878 -1.077
0.061565973 0.31824878 -1.077
0.033635013 0.32018217 -1.077
0.037969127 0.32066554 -1.077
0.042303242 0.3211489 -1.077
0.047118928 0.32114887 -1.0770001
0.052897748 0.32114893 -1.0770001
0.057713427 0.32018217 -1.077
0.062529109 0.32018217 -1.077
0.067344792 0.32018217 -1.077
0.072160475 0.32018217 -1.077
0.077939302 0.32095557 -1.077
0.082754984 0.3230823 -1.077
0.087089099 0.32356566 -1.077
0.09238635 0.32404903 -1.077
0.097202033 0.32404906 -1.077
0.10298085 0.32404906 -1.077
0.10779653 0.32404903 -1.077
0.11261222 0.32404906 -1.077
0.088533804 0.32598245 -1.077
0.09238635 0.32598245 -1.077
0.097202033 0.32598245 -1.077
0.10298085 0.32598245 -1.077
0.10779653 0.32598245 -1.077
0.1145385 0.32598245 -1.077
0.11774896 0.32662696 -1.077
0.12224361 0.32888258 -1.0770001
0.12754084 0.32936591 -1.077
0.1328381 0.32984927 -1.077
0.1376538 0.3298493 -1.077
0.14246947 0.32984927 -1.077
0.14728515 0.32888258 -1.0770001
0.12994869 0.3317827 -1.077
0.1328381 0.3317827 -1.077
0.1376538 0.3317827 -1.077
-0.046961248 0.30273432 -1.0700001
-0.042176865 0.30273432 -1.0700001
-0.037392482 0.30273432 -1.0700001
-0.032608099 0.30369473 -1.0700001
-0.027823715 0.30465516 -1.0700001
-0.022082454 0.30465516 -1.0700001
-0.017298069 0.30465516 -1.0700001
-0.012513688 0.30465516 -1.0700001
-0.0077293031 0.30465516 -1.0700001
-0.002944919 0.30465516 -1.0700001
0.00088258804 0.30465516 -1.0700001
-0.046133362 0.30550933 -1.0730001
-0.042295121 0.30550933 -1.0730001
-0.037017543 0.30599087 -1.0730001
-0.032699525 0.30743557 -1.0730001
-0.027901728 0.30743557 -1.0730002
-0.021736853 0.30786225 -1.0718001
-0.017666426 0.30807766 -1.0730002
-0.012548774 0.30743557 -1.0730002
-0.007750974 0.30743557 -1.0730001
-0.0029531762 0.30743557 -1.0730002
0.0031811551 0.30768925 -1.0712001
-0.02118481 0.31128806 -1.0730001
-0.018306131 0.31128806 -1.0730001
0.0037637413 0.31128806 -1.0730001
0.0075913528 0.31181601 -1.0715001
0.012382443 0.31181604 -1.0715001
0.017173534 0.31181601 -1.0715001
0.02193388 0.31041771 -1.0700001
0.028211772 0.31155205 -1.0722501
0.032459524 0.31233859 -1.0700001
0.03724391 0.31297886 -1.0700001
0.042985171 0.31425947 -1.0700001
0.047769554 0.31425944 -1.0700001
0.052553937 0.31425947 -1.0700001
0.05733832 0.31233859 -1.0700001
0.064036459 0.31425944 -1.0700001
0.067863964 0.31425947 -1.0700001
0.072648346 0.31425944 -1.0700001
0.033510089 0.31514055 -1.0730001
0.037348326 0.31610367 -1.0730001
0.042146124 0.31706679 -1.0730001
0.046943925 0.31706679 -1.0730002
0.05270128 0.31706679 -1.0730002
0.057499081 0.31514055 -1.0730001
0.062296879 0.31578264 -1.0730002
0.068054244 0.31706679 -1.0730002
0.07285203 0.31706679 -1.0730001
0.077505104 0.31647581 -1.0710001
0.082332373 0.31758666 -1.0715001
0.087123469 0.31758666 -1.0715001
0.092327982 0.31784391 -1.0707501
0.097527146 0.31810114 -1.0700001
0.10231154 0.31810114 -1.0700001
0.088204987 0.32091925 -1.0730001
0.093002789 0.32091925 -1.0730002
0.097800583 0.32091925 -1.0730001
0.10259839 0.32091925 -1.0730002
0.10739618 0.32091925 -1.0730001
0.11208763 0.32062018 -1.072
0.11826488 0.32287571 -1.0715001
0.12257754 0.32335728 -1.0715001
0.12754694 0.32477173 -1.0730002
0.13269685 0.3230744 -1.0712001
0.13737191 0.3236402 -1.0718001
0.14270014 0.32335728 -1.0715002
0.1474912 0.32335728 -1.0715001
0.1285065 0.32669798 -1.0730001
0.13234474 0.32669798 -1.0730001
0.13714254 0.32669801 -1.0730002
0.14194034 0.32669798 -1.0730001
-0.048056763 0.29905105 -1.0660002
-0.042972501 0.29968894 -1.0660002
-0.037252702 0.29968894 -1.0660002
-0.0324862 0.29968894 -1.0660001
-0.027719703 0.29968894 -1.0660002
-0.023906505 0.29968894 -1.0660001
-0.027719703 0.3016026 -1.0660002
-0.021999907 0.3016026 -1.0660002
-0.017233405 0.3016026 -1.0660001
-0.012466908 0.3016026 -1.0660002
-0.0077004083 0.3016026 -1.0660001
-0.0029339101 0.3016026 -1.0660002
0.0031672081 0.30236807 -1.0660001
0.0075523863 0.3035163 -1.0660001
0.010412285 0.3035163 -1.0660001
0.0075523863 0.3063868 -1.0660001
0.012318885 0.3063868 -1.0660001
0.018038683 0.3063868 -1.0660001
0.02280518 0.3063868 -1.0660001
0.02661838 0.3063868 -1.0660001
0.03233818 0.3092573 -1.0660001
0.037104677 0.30925733 -1.0660002
0.042824477 0.30925733 -1.0660002
0.047590971 0.3092573 -1.0660001
0.052357472 0.30925733 -1.0660002
0.057123967 0.3092573 -1.0660001
0.039011274 0.31117097 -1.0660001
0.042824477 0.311171 -1.0660002
0.047590971 0.31117097 -1.0660001
0.052357472 0.311171 -1.0660002
0.059983872 0.31117097 -1.0660001
0.06284377 0.31117097 -1.0660001
0.066656969 0.31117097 -1.0660001
0.077143267 0.31308466 -1.0660002
0.082863063 0.31308466 -1.0660002
0.087629564 0.31308466 -1.0660001
0.092396058 0.3140415 -1.0660001
0.09716256 0.31499833 -1.0660001
0.10192906 0.31499833 -1.0660002
0.10764885 0.31499833 -1.0660002
0.11146206 0.31499833 -1.0660001
0.10764885 0.316912 -1.0660002
0.11241536 0.316912 -1.0660001
0.1167052 0.31834725 -1.0660001
0.12290164 0.31882566 -1.0660002
0.12766814 0.31882566 -1.0660001
0.13291129 0.31834725 -1.0660001
0.13720113 0.31786883 -1.0660001
0.14158632 0.31806022 -1.0660001
0.14768744 0.31786883 -1.0660001
0.12480824 0.32073933 -1.0660001
0.12766814 0.32073933 -1.0660001
-0.047504552 0.29154879 -1.06075
-0.042730626 0.29229343 -1.0600002
-0.037043028 0.29229343 -1.0600002
-0.032303352 0.29229343 -1.0600001
-0.027563682 0.29229343 -1.0600002
-0.0067091328 0.29419634 -1.0600001
-0.0029173966 0.29419634 -1.0600002
0.0018222736 0.29419634 -1.0600001
-0.047287773 0.29566509 -1.0630001
-0.04285156 0.29598311 -1.0630002
-0.037147861 0.29598311 -1.0630002
-0.032394774 0.29598311 -1.0630001
-0.027641691 0.29598311 -1.0630002
-0.021700336 0.29669869 -1.0630001
-0.017184906 0.29693726 -1.0630002
-0.012431822 0.29693723 -1.0630001
-0.0078688608 0.29731891 -1.0630001
-0.0029256535 0.29789141 -1.0630002
0.0027758467 0.29775172 -1.0625002
0.0075205048 0.29747239 -1.0615001
0.012259316 0.29828328 -1.0610001
0.017937154 0.29800212 -1.0600002
0.022676822 0.29800212 -1.0600001
0.027416494 0.29863644 -1.0600002
0.033104099 0.29990503 -1.0600002
0.0075311325 0.30075383 -1.0630001
0.012664462 0.30151716 -1.0630001
0.017987918 0.30170798 -1.0630002
0.022741001 0.30170798 -1.0630001
0.027494088 0.30234408 -1.0630002
0.032247171 0.30361626 -1.0630001
0.036981959 0.30347392 -1.0625001
0.042643696 0.30318922 -1.0615001
0.047323104 0.30180794 -1.0600001
0.052062776 0.30180794 -1.0600002
0.057750382 0.30180794 -1.0600002
0.061542116 0.30180794 -1.0600001
0.02939532 0.30647868 -1.0630001
0.032247171 0.30647868 -1.0630001
0.03696366 0.30619037 -1.0620002
0.042583436 0.30561373 -1.0600002
0.047323104 0.30561373 -1.0600001
0.052062776 0.30561373 -1.0600002
0.058266547 0.30630705 -1.06075
0.062578484 0.30700037 -1.0615001
0.067324854 0.30700037 -1.0615001
0.072173074 0.30838698 -1.0630001
0.076926157 0.30838698 -1.0630001
0.082629859 0.30838698 -1.0630001
0.088084266 0.30751663 -1.0600002
0.092823938 0.30751663 -1.0600001
0.096615672 0.30751663 -1.0600001
0.10325121 0.30751663 -1.0600001
0.10704295 0.30751663 -1.0600002
0.11273056 0.30751663 -1.0600002
0.11747022 0.3084681 -1.0600001
0.1222099 0.30941957 -1.0600002
0.1278975 0.30941957 -1.0600002
0.13263717 0.30941954 -1.0600001
0.13642889 0.30941954 -1.0600001
0.069321223 0.31029525 -1.0630001
0.072173074 0.31029525 -1.0630001
0.076926164 0.31029528 -1.0630001
0.082629859 0.31029528 -1.0630001
0.087382942 0.31029525 -1.0630001
0.092611335 0.31077233 -1.0630001
0.097839735 0.31124941 -1.0630002
0.10259281 0.31124941 -1.0630001
0.1073459 0.31124941 -1.0630002
0.11328726 0.31196499 -1.0630001
0.11780268 0.31315768 -1.0630001
0.12243959 0.31286401 -1.0620002
0.12766205 0.31243822 -1.0612
0.13244219 0.3133485 -1.0630001
0.13769995 0.31301084 -1.0625001
0.14284615 0.31243822 -1.0612
0.14748473 0.31299609 -1.0618
0.11780268 0.31602013 -1.0630001
0.12255576 0.31602013 -1.0630001
0.12730885 0.31602013 -1.0630001
0.13111132 0.31602013 -1.0630001
0.14346933 0.31602013 -1.0630001
-0.04765103 0.28703865 -1.057
-0.043082315 0.28909427 -1.057
-0.036938183 0.28956866 -1.057
-0.032211926 0.28956866 -1.057
-0.022759415 0.29146618 -1.057
-0.01803316 0.29146618 -1.057
-0.012361652 0.29146618 -1.057
-0.007635396 0.29146618 -1.057
-0.0029091397 0.29146618 -1.057
0.003234993 0.29194057 -1.057
0.0065433723 0.29336369 -1.057
0.01221488 0.2952612 -1.057
0.017886385 0.2952612 -1.057
0.022612642 0.2952612 -1.057
0.027338898 0.29589373 -1.057
0.033010405 0.29715872 -1.057
0.03742158 0.29842377 -1.057
0.042462915 0.29905626 -1.057
0.047189172 0.29905626 -1.057
0.05191543 0.29905626 -1.057
0.057586934 0.29905626 -1.057
0.062313192 0.29905626 -1.057
0.067039452 0.29905626 -1.057
0.047189172 0.30285129 -1.057
0.05191543 0.30285129 -1.057
0.057586934 0.30285129 -1.057
0.062313192 0.30285129 -1.057
0.067039452 0.30285129 -1.057
0.072710954 0.30474883 -1.057
0.077437207 0.3047488 -1.057
0.099177986 0.30664632 -1.057
0.10106849 0.30664632 -1.057
0.11997352 0.30664632 -1.057
0.12280926 0.30664632 -1.057
0.12753554 0.30664632 -1.057
0.13131653 0.30664632 -1.057
0.13887854 0.30854383 -1.057
0.14265954 0.30854386 -1.057
0.14738581 0.30854383 -1.057
-0.048900448 0.27822623 -1.0500001
-0.047791049 0.28203312 -1.052143
-0.042381853 0.28235602 -1.0513334
-0.037632555 0.28199613 -1.0500002
-0.033205878 0.28253469 -1.0500002
-0.027303647 0.28388113 -1.0500001
-0.02260869 0.2838811 -1.0500001
-0.017913735 0.28388113 -1.0500001
-0.011810291 0.28340986 -1.0500001
-0.0075848307 0.2829386 -1.0500001
-0.0028917321 0.28320897 -1.0510001
0.002745793 0.28320897 -1.0510001
0.0071260328 0.28325278 -1.0500001
0.010256004 0.2838811 -1.0500001
-0.041506767 0.2865825 -1.0530001
-0.03774007 0.2865825 -1.0530001
-0.033031698 0.28658253 -1.0530002
-0.027342653 0.28711945 -1.0515001
-0.022640988 0.28711942 -1.0515001
-0.017939325 0.28711945 -1.0515002
-0.01230813 0.2873916 -1.0525
-0.0076065017 0.28752768 -1.0530001
-0.002898131 0.28752768 -1.0530001
0.0027519139 0.28752768 -1.0530001
0.0074542994 0.28732353 -1.05225
0.012138871 0.28684548 -1.0505002
0.018143529 0.288405 -1.0500001
0.02246289 0.28953594 -1.0500001
0.027157847 0.28953594 -1.0500001
0.032791793 0.28953594 -1.0500001
0.037486747 0.28953594 -1.0500001
0.040303722 0.28953594 -1.0500001
0.0077741756 0.2909933 -1.0530002
0.012168655 0.29130834 -1.0530001
0.017347861 0.29178092 -1.0530001
0.022527069 0.29225352 -1.0530001
0.027706277 0.2927261 -1.0530001
0.032853357 0.29292116 -1.052
0.037540302 0.29278237 -1.0515001
0.042200893 0.29250306 -1.0505002
0.047815651 0.29236338 -1.0500002
0.052510612 0.29236335 -1.0500001
0.057205569 0.29236338 -1.0500002
0.062839523 0.29236338 -1.0500002
0.067534477 0.29236338 -1.0500001
0.071759932 0.29283458 -1.0500001
0.07786338 0.29330584 -1.0500001
0.082558334 0.29330584 -1.0500001
0.087253295 0.29330584 -1.0500001
0.038535532 0.29603419 -1.0530001
0.042302229 0.29603419 -1.0530002
0.047952272 0.29603419 -1.0530002
0.052660644 0.29603419 -1.0530001
0.057369009 0.29603419 -1.0530002
0.063395731 0.29754648 -1.0530001
0.067727432 0.29792452 -1.0530001
0.072435796 0.29792455 -1.0530001
0.078011684 0.29764161 -1.0520002
0.082636073 0.29735869 -1.0510001
0.087018535 0.29731137 -1.0500001
0.092887245 0.29896069 -1.0500001
0.12293496 0.29896069 -1.0500001
0.072435796 0.30170518 -1.0530002
0.078556679 0.30217776 -1.0530001
0.082794212 0.30265033 -1.0530001
0.087502584 0.30265036 -1.0530001
0.092616729 0.3019456 -1.0512002
0.097072951 0.30214959 -1.0506002
0.10242325 0.30222058 -1.0515002
0.10765775 0.3019456 -1.0512002
0.11223408 0.30249557 -1.0518001
0.11746859 0.30222058 -1.0515001
0.12293496 0.30178809 -1.0500002
0.12762991 0.30178809 -1.0500001
0.13232487 0.30178809 -1.0500002
0.13795881 0.30273062 -1.0500001
0.14265376 0.30273059 -1.0500001
0.14734873 0.30273062 -1.0500001
0.13364461 0.30548587 -1.0530001
0.1374113 0.30548587 -1.0530001
0.14211969 0.3054859 -1.0530002
0.14776972 0.3054859 -1.0530002
-0.047356263 0.27602163 -1.0470001
-0.042206571 0.27649152 -1.0470001
-0.037837133 0.2768048 -1.0470002
-0.032843485 0.2783711 -1.0470001
-0.027225634 0.27931088 -1.0470002
-0.022544093 0.27931085 -1.0470001
-0.012244701 0.27931088 -1.0470002
-0.0075631589 0.27931085 -1.0470001
-0.0028816173 0.27931088 -1.0470002
0.001799925 0.27931085 -1.0470001
-0.027225634 0.28119045 -1.0470002
-0.022544093 0.28119043 -1.0470001
-0.017862553 0.28119045 -1.0470002
-0.013181008 0.28119043 -1.0470001
0.0083540846 0.28119043 -1.0470001
0.013035627 0.28307 -1.0470001
0.01771717 0.2849496 -1.0470002
0.021462401 0.28494957 -1.0470001
0.027080253 0.28494957 -1.0470001
0.02239871 0.28682911 -1.0470001
0.027080253 0.28682911 -1.0470002
0.032698106 0.28682911 -1.0470002
0.037379645 0.28682911 -1.0470001
0.042061187 0.2877689 -1.0470001
0.047679037 0.28870869 -1.0470002
0.052360579 0.28870869 -1.0470001
0.057042122 0.28870869 -1.0470002
0.062659971 0.28870869 -1.0470002
0.067341506 0.28870869 -1.0470001
0.070150435 0.28870869 -1.0470001
0.072959363 0.29058826 -1.0470001
0.077640906 0.29058826 -1.0470002
0.082322448 0.29058826 -1.0470001
0.087472141 0.29152805 -1.0470001
0.092086814 0.2924678 -1.0470001
0.097303376 0.2924678 -1.0470001
0.1001123 0.2924678 -1.0470001
0.092621833 0.29622695 -1.0470002
0.097303376 0.29716673 -1.0470001
0.10198492 0.29716676 -1.0470001
0.10760278 0.29716676 -1.0470001
0.11228431 0.29716673 -1.0470001
0.11659133 0.2973547 -1.0470001
0.12726524 0.29810652 -1.0470001
0.13756466 0.29998606 -1.0470002
0.14224619 0.29998606 -1.0470001
0.14692773 0.29998606 -1.0470002
-0.041924387 0.26997548 -1.0400002
-0.037274145 0.26997548 -1.0400001
-0.047504678 0.27184248 -1.0400002
-0.041975752 0.27219099 -1.0413334
-0.037059706 0.27316424 -1.0426668
-0.032666922 0.2731269 -1.0413334
-0.027043611 0.27277598 -1.0400001
-0.02239337 0.27277598 -1.0400001
-0.018208152 0.27324271 -1.0400001
-0.012162837 0.27370948 -1.0400002
-0.0075125936 0.27370948 -1.0400001
-0.0037923995 0.27370948 -1.0400001
-0.030882129 0.27663636 -1.044
-0.027147627 0.27663636 -1.044
-0.022479497 0.27663636 -1.044
-0.017777249 0.27704352 -1.0420001
-0.012162837 0.27557647 -1.0400002
-0.0075125936 0.27557647 -1.0400001
-0.0028623515 0.27557647 -1.0400002
0.0031873658 0.27631 -1.0410001
0.0070664203 0.27717686 -1.0413334
0.012483449 0.27791023 -1.0400001
0.01713369 0.2788437 -1.0400001
0.022248957 0.27931046 -1.0400001
0.0268992 0.27931046 -1.0400002
0.032479491 0.27931046 -1.0400002
0.038059782 0.27931046 -1.0400002
0.011131023 0.28038472 -1.044
0.017666403 0.28225893 -1.044
0.022588691 0.28216267 -1.0413334
0.026983399 0.2827923 -1.0432001
0.032561582 0.28283551 -1.0426668
0.037744883 0.28235972 -1.0416001
0.042248409 0.28295085 -1.0424001
0.047419794 0.28247383 -1.0413334
0.052940559 0.28211096 -1.0400001
0.057590798 0.28304446 -1.0400001
0.06224104 0.28304446 -1.0400002
0.068286359 0.28351122 -1.0400001
0.072471574 0.28491145 -1.0400001
0.077121817 0.28444469 -1.0400001
0.082702115 0.28397799 -1.0400001
0.08735235 0.28397796 -1.0400001
0.092002593 0.28491145 -1.0400002
0.098047912 0.28444469 -1.0400001
0.10192311 0.28428912 -1.0400002
0.10688337 0.28397796 -1.0400001
0.11209164 0.28416464 -1.0400001
0.11618385 0.28491145 -1.0400001
0.043807916 0.28600726 -1.044
0.047542419 0.28600726 -1.044
0.052210547 0.28600726 -1.044
0.056878679 0.28600726 -1.044
0.062480431 0.28600726 -1.044
0.067148559 0.28600726 -1.044
0.072750308 0.28788143 -1.044
0.077418439 0.28788143 -1.044
0.083020195 0.28788143 -1.044
0.087688319 0.28788143 -1.044
0.09282326 0.28834999 -1.044
0.0979582 0.28881854 -1.0440001
0.10262633 0.28881851 -1.044
0.10722713 0.28863472 -1.0433334
0.11253457 0.28789583 -1.0406667
0.11757892 0.28724524 -1.0400001
0.0942237 0.29350397 -1.044
0.0979582 0.29350397 -1.044
0.10262633 0.2925669 -1.044
0.10722715 0.29238069 -1.0433335
0.11275084 0.29219446 -1.0426668
0.11811842 0.29163337 -1.0406667
0.12238418 0.29175717 -1.0400002
0.12687941 0.29377973 -1.0400001
0.13338974 0.2937797 -1.0400001
0.13757497 0.29331297 -1.0400001
0.14222521 0.29331297 -1.0400001
0.14780551 0.293313 -1.0400001
0.11849797 0.29537815 -1.044
0.12223248 0.29537815 -1.044
0.12970148 0.29725233 -1.044
0.13250235 0.29725233 -1.044
0.13717048 0.29725236 -1.044
0.14277224 0.29725236 -1.044
0.14744037 0.29725233 -1.044
-0.047367644 0.2682659 -1.0370002
-0.042730816 0.26733509 -1.0370001
-0.038093992 0.26733512 -1.0370001
-0.032529794 0.26919672 -1.0370001
-0.026965601 0.26919672 -1.0370001
-0.022328774 0.26919672 -1.0370001
-0.017691946 0.26919672 -1.0370001
-0.013055117 0.26919672 -1.0370001
-0.016764579 0.27105832 -1.0370001
-0.012127751 0.27105832 -1.0370001
-0.0074909232 0.27105832 -1.0370001
-0.0023904117 0.27152371 -1.0370001
0.0027100993 0.27198914 -1.0370002
0.0073469272 0.27291992 -1.0370001
0.011983756 0.27385074 -1.0370002
0.01754795 0.27478155 -1.0370001
0.021257412 0.27478155 -1.0370001
0.038877361 0.27478155 -1.0370001
0.042586822 0.27478155 -1.0370001
0.045368921 0.27478155 -1.0370001
0.018475315 0.27664316 -1.0370001
0.023112144 0.27664316 -1.0370001
0.027748972 0.27664316 -1.0370001
0.032385804 0.27664316 -1.0370001
0.037949994 0.27664316 -1.0370001
0.042586822 0.27757394 -1.0370001
0.047223654 0.27757394 -1.0370002
0.052787848 0.27757394 -1.0370002
0.057115551 0.27788424 -1.0370001
0.062061504 0.27850479 -1.0370001
0.066698328 0.27850476 -1.0370001
0.097301394 0.27850479 -1.0370001
0.1028656 0.27850479 -1.0370001
0.10750242 0.27850476 -1.0370001
0.057424672 0.28036639 -1.0370001
0.062061504 0.28036639 -1.0370001
0.067625694 0.28036639 -1.0370001
0.072262526 0.28129721 -1.0370001
0.07689935 0.28111103 -1.0370001
0.082463548 0.28036639 -1.0370001
0.088491417 0.28083178 -1.0370001
0.09266457 0.28129721 -1.0370001
0.096930452 0.28111106 -1.0370001
0.10286559 0.28083178 -1.0370001
0.10750242 0.28036639 -1.0370001
0.11260293 0.28083181 -1.0370001
0.11807438 0.28297263 -1.0370001
0.12234026 0.2840896 -1.0370001
0.12604973 0.2840896 -1.0370001
0.1186308 0.28781283 -1.0370001
0.12264939 0.28843337 -1.0370001
0.12660615 0.28892979 -1.0370001
0.13254128 0.28967446 -1.0370001
0.13856918 0.28920901 -1.0370001
0.14274231 0.28967443 -1.0370001
0.14737915 0.28967446 -1.0370001
0.12790444 0.29153606 -1.0370001
0.13161391 0.29153606 -1.0370001
-0.047093581 0.26393747 -1.031
-0.042483583 0.26393747 -1.031
-0.038795583 0.26393747 -1.031
-0.032435689 0.26656172 -1.0340002
-0.026887592 0.26656172 -1.0340002
-0.022264179 0.26656172 -1.034
-0.017625492 0.26630393 -1.033
-0.01207244 0.26710314 -1.0325
-0.0074692518 0.26841792 -1.034
-0.0028458377 0.26841792 -1.0340002
0.0027022592 0.26841792 -1.0340002
0.0073137046 0.26802856 -1.0325
0.01191442 0.26763916 -1.031
0.017446419 0.26825613 -1.031
0.022056419 0.26949 -1.031
0.039574418 0.26949 -1.031
0.04234042 0.26949 -1.031
0.0082503557 0.27027416 -1.034
0.011949087 0.27027416 -1.0340002
0.017127311 0.2713879 -1.034
0.023400709 0.27271497 -1.0334001
0.027628556 0.27266371 -1.0325
0.032245263 0.27266371 -1.0325
0.037351757 0.27239704 -1.03325
0.042463619 0.2721304 -1.034
0.047401186 0.27255705 -1.0328001
0.052558776 0.27266374 -1.0325001
0.057636477 0.27312642 -1.0325
0.06262441 0.27319169 -1.031
0.066312417 0.27319169 -1.031
0.058183227 0.27584285 -1.034
0.061881959 0.27584285 -1.0340002
0.067892402 0.2763069 -1.034
0.072872289 0.27637076 -1.0325
0.077488989 0.27637079 -1.0325
0.082105696 0.27637076 -1.0325
0.087248415 0.27703494 -1.03325
0.092788845 0.27610514 -1.0322001
0.097801164 0.27544269 -1.0325
0.10227042 0.27504253 -1.031
0.10834318 0.27570665 -1.03175
0.11273952 0.27769905 -1.034
0.11719268 0.27822435 -1.0325
0.12255441 0.27874419 -1.031
0.12808642 0.27874419 -1.031
0.12291102 0.28141153 -1.0340002
0.12867776 0.28219652 -1.0328001
0.13221882 0.28261027 -1.0316001
0.1369376 0.28281605 -1.031
0.14283842 0.28429672 -1.031
0.14744842 0.28429672 -1.031
0.12291102 0.285124 -1.0340002
0.12784266 0.28574273 -1.0340002
0.13215785 0.28698021 -1.0340002
0.13678128 0.28698021 -1.034
0.14232937 0.28698021 -1.034
0.14695278 0.28698021 -1.0340002
-0.047736146 0.25780129 -1.0250001
-0.043152981 0.25780129 -1.0250001
-0.039486442 0.25872132 -1.0250001
-0.047807351 0.2609427 -1.0265
-0.043152981 0.26056141 -1.0250001
-0.037221067 0.26121342 -1.02575
-0.032200422 0.26186547 -1.0265001
-0.02761054 0.26186544 -1.0265
-0.023394044 0.26212627 -1.0268
-0.017523127 0.26291347 -1.027
-0.01198741 0.26240146 -1.0250001
-0.0074042389 0.26240146 -1.0250001
-0.0028210673 0.26240146 -1.0250001
0.0026787384 0.26240146 -1.0250001
0.00726191 0.26240146 -1.0250001
0.011845082 0.26240146 -1.0250001
0.017344888 0.26240146 -1.0250001
0.02330301 0.26286149 -1.0250001
0.027427863 0.26332152 -1.0250001
0.031644385 0.26350555 -1.0250001
0.037510842 0.26424155 -1.0250001
0.043010648 0.26424155 -1.0250001
0.047593817 0.26424155 -1.0250001
0.051260356 0.26424155 -1.0250001
-0.011103178 0.26501492 -1.028
-0.0074259099 0.26501492 -1.028
-0.0028293242 0.26501495 -1.0280001
0.0026865788 0.26501495 -1.0280001
0.0072831642 0.26501492 -1.028
0.01187975 0.26501495 -1.0280001
0.017855311 0.26547629 -1.028
0.022911556 0.26655281 -1.028
0.027508143 0.26778311 -1.028
0.032104727 0.26778314 -1.028
0.037252903 0.2675986 -1.028
0.043596189 0.26732177 -1.028
0.047697626 0.26758844 -1.0272499
0.052253347 0.26739374 -1.0265
0.057704043 0.26713234 -1.0255001
0.062259968 0.26700163 -1.0250001
0.066843137 0.26700163 -1.0250001
0.072342947 0.26884171 -1.0250001
0.07784275 0.26884171 -1.0250001
0.082425922 0.26884171 -1.0250001
0.087009095 0.26884171 -1.0250001
0.092508905 0.26884171 -1.0250001
0.098008707 0.26884171 -1.0250001
0.10259188 0.26884171 -1.0250001
0.10717505 0.26884174 -1.0250001
0.11267485 0.26976174 -1.0250001
0.11725803 0.26884171 -1.0250001
0.12147456 0.26902571 -1.0250001
0.127341 0.26976174 -1.0250001
0.13192418 0.26976174 -1.0250001
0.058764923 0.27055129 -1.028
0.062442191 0.27055129 -1.028
0.067498438 0.27101266 -1.028
0.072554678 0.27239674 -1.0280001
0.078070581 0.27239674 -1.0280001
0.082667172 0.27239674 -1.028
0.087631486 0.27313492 -1.028
0.092779659 0.27239674 -1.0280001
0.097376242 0.27239674 -1.028
0.10197283 0.27239674 -1.0280001
0.10748874 0.27239674 -1.0280001
0.11300464 0.27331948 -1.028
0.11751475 0.27312073 -1.0272499
0.12195917 0.27278864 -1.026
0.12746614 0.27278864 -1.026
0.1326286 0.27265796 -1.0262001
0.13711374 0.27318606 -1.0268
0.14172256 0.27286592 -1.0256001
0.14750695 0.27344188 -1.0250001
0.12219781 0.2760877 -1.0280001
0.12771371 0.2760877 -1.0280001
0.1323103 0.27701038 -1.028
0.13716955 0.27740586 -1.028
0.14242278 0.27793315 -1.028
0.14760229 0.27730227 -1.0256668
0.1323103 0.28162402 -1.028
0.13690689 0.28162402 -1.0280001
0.1424228 0.28162402 -1.0280001
0.14793868 0.28162402 -1.0280001
-0.047596432 0.25429472 -1.0220001
-0.043026678 0.25429472 -1.0220001
-0.037177384 0.2568633 -1.0220002
-0.03205926 0.25704676 -1.0220002
-0.027794151 0.25735256 -1.0220001
-0.022462767 0.25842279 -1.0220001
-0.017893009 0.25934011 -1.0220001
0.033745248 0.26163346 -1.0220001
0.037401058 0.26163346 -1.0220001
0.042884763 0.26163346 -1.0220001
0.047454521 0.26163346 -1.0220001
0.052024279 0.2625508 -1.0220001
0.057507988 0.26346815 -1.0220001
0.063357271 0.26273426 -1.0220002
0.067256801 0.2628566 -1.0220001
0.071217254 0.26346815 -1.0220001
0.072131217 0.26530284 -1.0220001
0.077614918 0.26530284 -1.0220001
0.083098635 0.26530284 -1.0220001
0.087668389 0.26530284 -1.0220001
0.092238151 0.26530284 -1.0220001
0.09772186 0.26530284 -1.0220001
0.10229161 0.26530284 -1.0220001
0.10594742 0.26530284 -1.0220001
0.11234508 0.26713753 -1.0220001
0.1233125 0.26713753 -1.0220001
0.12696829 0.26713753 -1.0220001
0.13245201 0.26805484 -1.0220001
0.13793573 0.26897222 -1.0220001
0.14159152 0.26897219 -1.0220001
0.14341943 0.27080688 -1.0220001
0.14616129 0.27080688 -1.0220001
-0.047317002 0.24915397 -1.016
-0.043682657 0.24915397 -1.016
-0.047456719 0.25171897 -1.0190001
-0.042860061 0.25147197 -1.0180001
-0.037377663 0.25226307 -1.0174999
-0.031918101 0.25226307 -1.0175002
-0.027630977 0.25219381 -1.016
-0.022785185 0.25280184 -1.016
-0.016970236 0.25353137 -1.016
-0.011882155 0.25462574 -1.016
-0.0073392261 0.25462571 -1.016
-0.0027962974 0.25462574 -1.016
0.018101178 0.25462571 -1.016
-0.026497539 0.25537756 -1.0190001
-0.022852464 0.25537759 -1.0190001
-0.017384853 0.2565971 -1.0190001
-0.011899698 0.25774288 -1.0175002
-0.0073500616 0.25774288 -1.0175
-0.0028004255 0.25774288 -1.0174999
0.0026591381 0.25774288 -1.0175002
0.0081187012 0.25774288 -1.0175002
0.012668338 0.25774288 -1.0175
0.017217975 0.25774288 -1.0174999
0.022644106 0.25736159 -1.016
0.027732184 0.25754398 -1.016
0.03263855 0.25827354 -1.016
0.037218079 0.25852776 -1.0170001
0.042632997 0.25827354 -1.016
0.048084509 0.25827354 -1.016
0.051718853 0.25827354 -1.016
0.062621891 0.25827354 -1.016
0.066256225 0.25827354 -1.016
0.052782834 0.26086545 -1.0190001
0.057339177 0.26086545 -1.0190001
0.060984254 0.26086545 -1.0190001
0.068274401 0.26086545 -1.0190001
0.072320834 0.26113078 -1.01825
0.077273175 0.26139611 -1.0175002
0.082732737 0.26139611 -1.0175002
0.087801792 0.26113638 -1.0172001
0.092222527 0.26165581 -1.0178
0.097291574 0.26139614 -1.0174999
0.10241801 0.26165581 -1.0178
0.10813094 0.26257205 -1.0167501
0.11224683 0.26348299 -1.0178
0.11785073 0.26387337 -1.01825
0.12270832 0.26309294 -1.0170001
0.12804008 0.26283336 -1.016
0.13228014 0.26313731 -1.016
0.13712594 0.26374528 -1.016
0.14257744 0.26374528 -1.016
0.13297448 0.26635334 -1.0190001
0.13725911 0.26583058 -1.0170001
0.14311035 0.26661459 -1.0172001
0.14802897 0.26648116 -1.016
0.14846605 0.27001196 -1.0190001
-0.049894992 0.24478123 -1.013
-0.048083186 0.24659976 -1.013
-0.042194817 0.24705438 -1.013
-0.037212357 0.24750903 -1.013
-0.032682836 0.24750902 -1.013
-0.028606277 0.24796365 -1.013
-0.022717906 0.2484183 -1.013
-0.01728249 0.2484183 -1.013
-0.01184707 0.2484183 -1.013
-0.0073175551 0.24841829 -1.013
-0.0027880403 0.24841829 -1.013
-0.026341518 0.25023681 -1.013
-0.022717906 0.25023681 -1.013
-0.01728249 0.25023681 -1.013
-0.01184707 0.25114608 -1.013
-0.0073175551 0.25114608 -1.013
-0.0027880406 0.25114608 -1.013
0.0026473776 0.25205532 -1.0130001
0.0080827959 0.25296462 -1.013
0.01261231 0.25296462 -1.013
0.016688874 0.25250998 -1.013
0.022577245 0.25296462 -1.013
0.028012661 0.25387388 -1.013
0.032542177 0.25387385 -1.013
0.037071697 0.25387388 -1.013
0.029824469 0.25569239 -1.013
0.032542177 0.25569239 -1.013
0.037071694 0.25569242 -1.013
0.040695306 0.25569239 -1.013
0.052774008 0.2562986 -1.013
0.057001557 0.25660166 -1.013
0.062436968 0.25569242 -1.013
0.068234757 0.25641981 -1.013
0.072401904 0.25660166 -1.013
0.076931417 0.25660166 -1.013
0.082366839 0.25660166 -1.013
0.087802261 0.25751096 -1.013
0.092331767 0.25751093 -1.013
0.096861288 0.25751096 -1.013
0.10229671 0.25842017 -1.013
0.10773212 0.25932944 -1.013
0.11316755 0.25932944 -1.013
0.11769706 0.25932944 -1.013
0.12222658 0.25932944 -1.013
0.127662 0.25932944 -1.013
0.13128561 0.25932944 -1.013
0.14125054 0.25932944 -1.013
0.11497935 0.26114798 -1.013
0.11679115 0.26114798 -1.013
0.13400331 0.26114798 -1.013
0.13762693 0.26114798 -1.013
0.14215645 0.26114798 -1.013
0.14759187 0.26205724 -1.013
-0.049599469 0.23971587 -1.0070001
-0.047523618 0.24268059 -1.0087999
-0.042940162 0.24342313 -1.00925
-0.037102148 0.24405631 -1.01
-0.032538995 0.24369384 -1.0085001
-0.027986571 0.2433314 -1.0070002
-0.022583347 0.2433314 -1.0070002
-0.017180124 0.2433314 -1.0070002
-0.012677437 0.24333139 -1.0070001
-0.008174751 0.2433314 -1.0070002
-0.0027715268 0.24333139 -1.0070001
-0.027166728 0.24586944 -1.01
-0.022650627 0.24586944 -1.01
-0.017231306 0.24586944 -1.01
-0.011811986 0.24586944 -1.01
-0.0072958842 0.24586944 -1.01
-0.002776481 0.24630259 -1.0087999
0.0026356175 0.24641088 -1.0085001
0.0078187631 0.24745077 -1.0081251
0.012556284 0.24822131 -1.0085
0.016710538 0.24847619 -1.0088001
0.02251038 0.24949573 -1.01
0.027846744 0.24875467 -1.0070002
0.031448893 0.24875465 -1.0070001
0.027929701 0.25130886 -1.01
0.032445803 0.25130886 -1.01
0.03692352 0.25106007 -1.0090001
0.042339265 0.25317448 -1.0090001
0.047729552 0.25365266 -1.0085001
0.053061791 0.25237018 -1.0070002
0.057564475 0.25237018 -1.0070001
0.062130582 0.25262082 -1.0080001
0.067671388 0.25312203 -1.01
0.073090702 0.25312203 -1.01
0.077491552 0.2518422 -1.0085001
0.082000948 0.2518422 -1.0085001
0.087412223 0.25365266 -1.0085001
0.092823491 0.25365266 -1.0085001
0.097080968 0.25408018 -1.0090001
0.10093907 0.25455654 -1.0085001
0.10289697 0.25674829 -1.01
0.10730493 0.2564941 -1.0090001
0.11159671 0.25598568 -1.0070001
0.13360646 0.25856143 -1.01
0.13721934 0.25856143 -1.01
0.14354189 0.25856143 -1.01
0.14715478 0.25856143 -1.01
-0.047871668 0.23397481 -1.001
-0.042142566 0.23469362 -1.0010002
-0.038561881 0.2346936 -1.001
-0.047269445 0.23777854 -1.0034002
-0.042205717 0.23774616 -1.0025001
-0.037695602 0.23756763 -1.0017501
-0.03319085 0.23738907 -1.001
-0.027846716 0.23762713 -1.0020001
-0.022460898 0.2375081 -1.0015001
-0.017077759 0.23738909 -1.001
-0.012601903 0.23738909 -1.001
-0.0081260437 0.23738909 -1.001
-0.0027550131 0.23783833 -1.001
0.0026160169 0.23828757 -1.0010002
0.0061967033 0.23828757 -1.001
-0.04137101 0.24080409 -1.0040001
-0.036881737 0.24080411 -1.0040001
-0.032392465 0.24080409 -1.0040001
-0.027903195 0.24080411 -1.0040001
-0.022516068 0.24080411 -1.0040001
-0.017128941 0.24080411 -1.0040001
-0.01263967 0.24080409 -1.0040001
-0.0081503969 0.24080411 -1.0040001
-0.0027632702 0.24152504 -1.0040001
0.0026216561 0.24158534 -1.0035002
0.008257255 0.24178311 -1.0027144
0.012487806 0.24236661 -1.003
0.016955683 0.24212499 -1.0020001
0.022082688 0.24270798 -1.0022857
0.027693756 0.24290177 -1.0015001
0.033051856 0.24278006 -1.001
0.03752771 0.24278003 -1.001
0.042003572 0.24367854 -1.0010002
0.047374599 0.24367854 -1.0010002
0.052745633 0.24367854 -1.0010002
0.05811666 0.24367854 -1.0010002
0.062592521 0.24367853 -1.001
0.065278038 0.24367853 -1.001
0.018785238 0.2462112 -1.0040001
0.022376657 0.24621122 -1.0040001
0.027763784 0.24621122 -1.0040001
0.033510055 0.24693215 -1.0040001
0.037611395 0.24692845 -1.0032501
0.042274572 0.24732713 -1.002125
0.047437113 0.24760365 -1.0023334
0.052851021 0.24776836 -1.0030001
0.05770313 0.24744081 -1.0027144
0.062059827 0.24805495 -1.00325
0.067202382 0.24776836 -1.003
0.072584145 0.24776836 -1.0029999
0.077927038 0.24674454 -1.0025001
0.083181471 0.24637401 -1.001
0.087460183 0.24806087 -1.003143
0.092271253 0.24854422 -1.0025001
0.097650319 0.24854422 -1.0025001
0.10292573 0.24829541 -1.0015
0.1073511 0.24906948 -1.001
0.11182697 0.2490695 -1.0010002
0.12346418 0.24906948 -1.001
0.12794004 0.2490695 -1.0010002
0.13241591 0.24906948 -1.001
0.13689177 0.2490695 -1.0010002
0.14226279 0.2490695 -1.0010002
0.14584348 0.24906948 -1.001
0.098694287 0.25161833 -1.0040001
0.1035427 0.25233927 -1.0040001
0.10751197 0.25214356 -1.0025001
0.11199453 0.25214359 -1.0025002
0.11719799 0.25176498 -1.001
0.12256902 0.25176498 -1.001
0.12773429 0.25188816 -1.0022
0.1321153 0.252399 -1.0028001
0.13709691 0.25214356 -1.0025001
0.14247596 0.25214356 -1.0025001
0.14763384 0.25176498 -1.001
0.11395781 0.25522307 -1.0040001
0.11754923 0.2552231 -1.0040001
0.12293635 0.2552231 -1.0040001
0.12742563 0.25522307 -1.0040001
0.1319149 0.2552231 -1.0040001
0.13730203 0.2552231 -1.0040001
0.14268915 0.2552231 -1.0040001
0.14807628 0.2552231 -1.0040001
-0.047228806 0.22911903 -0.99500006
-0.041889966 0.22971444 -0.99500006
-0.047371194 0.23130283 -0.99800003
-0.042016264 0.23219864 -0.99800003
-0.037219591 0.23256317 -0.9970001
-0.033041641 0.23274544 -0.99650002
-0.027694754 0.23274541 -0.99650002
-0.022710521 0.23299439 -0.99680007
-0.016568877 0.23336783 -0.99725008
-0.012545249 0.23274541 -0.99650002
-0.008087242 0.23352131 -0.99600005
-0.0027384998 0.23328684 -0.99500006
0.00082072435 0.23328684 -0.99500006
-0.0027467564 0.23578182 -0.99800003
0.0026037747 0.23554556 -0.9970001
0.0083057433 0.23607321 -0.99620008
0.012406877 0.23632324 -0.99650007
0.016430404 0.23694834 -0.99725008
0.022572109 0.2380044 -0.99680007
0.027583143 0.2383502 -0.99750006
0.032903269 0.23811215 -0.99650013
0.037803911 0.23855871 -0.99650002
0.042641602 0.23864549 -0.99500006
0.047090635 0.23864549 -0.99500006
0.052429475 0.23864549 -0.99500006
0.057768311 0.23864549 -0.99500006
0.062217336 0.23864549 -0.99500006
0.041877687 0.24115662 -0.99800003
0.04723262 0.24115662 -0.99800003
0.05258755 0.24115662 -0.99800003
0.05794248 0.24115662 -0.99800003
0.063232206 0.24091499 -0.9970001
0.067658015 0.24168997 -0.99650002
0.072113752 0.24168997 -0.99650013
0.077483959 0.24194162 -0.99680007
0.08276777 0.24246135 -0.99600005
0.088196859 0.24270479 -0.9970001
0.092102528 0.24373105 -0.99680007
0.097065888 0.24347886 -0.99650013
0.10241278 0.24347886 -0.99650002
0.108148 0.24373105 -0.99680007
0.11264739 0.24343677 -0.99560004
0.11738531 0.24400413 -0.99500006
0.12183434 0.24400413 -0.99500006
0.12717317 0.24400413 -0.99500006
0.132512 0.24400413 -0.99500006
0.13785085 0.24400413 -0.99500006
0.14141007 0.24400413 -0.99500006
0.10792186 0.24653143 -0.99800003
0.1131615 0.24628441 -0.9970001
0.11706217 0.24730995 -0.99680007
0.12166494 0.24679406 -0.99725008
0.12755661 0.24653143 -0.99800003
0.13291155 0.24653143 -0.99800003
0.13737398 0.24653143 -0.99800003
0.14261965 0.24634616 -0.99725008
0.14786127 0.24705669 -0.99650007
-0.047086399 0.22635058 -0.99200004
-0.042650785 0.22724098 -0.99200004
-0.038215172 0.22842821 -0.99200004
-0.032892428 0.22902183 -0.99200004
-0.027569693 0.22902183 -0.99200004
-0.022246953 0.22902183 -0.99200004
-0.016924214 0.22902183 -0.99200004
-0.012488598 0.22902182 -0.99200004
-0.020472705 0.23080264 -0.99200004
-0.017811336 0.23080264 -0.99200004
-0.0080529815 0.23080264 -0.99200004
-0.0027302429 0.23080264 -0.99200004
0.0029473454 0.23151498 -0.99200004
0.0079152351 0.23169306 -0.99200004
0.012350851 0.23169304 -0.99200004
0.017141318 0.2332958 -0.99200004
0.021665644 0.23391908 -0.99200004
0.027431946 0.23436432 -0.99200004
0.032754686 0.23436432 -0.99200004
0.038077425 0.23436432 -0.99200004
0.042513039 0.2343643 -0.99200004
0.046948653 0.23436432 -0.99200004
0.052271392 0.23436432 -0.99200004
0.057594132 0.23436432 -0.99200004
0.062029745 0.2343643 -0.99200004
0.038964547 0.23614512 -0.99200004
0.042513039 0.23614512 -0.99200004
0.046948653 0.23614512 -0.99200004
0.052271396 0.23614512 -0.99200004
0.057594132 0.23614512 -0.99200004
0.06336043 0.23659033 -0.99200004
0.067352489 0.23703554 -0.99200004
0.071788102 0.23703554 -0.99200004
0.077110842 0.23837115 -0.99200004
0.082433581 0.23881638 -0.99200004
0.087756321 0.23881638 -0.99200004
0.09307906 0.2397068 -0.99200004
0.097514674 0.23881635 -0.99200004
0.10159544 0.23899446 -0.99200004
0.10727303 0.2397068 -0.99200004
0.11259577 0.2397068 -0.99200004
0.11791851 0.2397068 -0.99200004
0.12235412 0.23970678 -0.99200004
0.12678975 0.2397068 -0.99200004
0.13211247 0.2397068 -0.99200004
0.13743523 0.2397068 -0.99200004
0.10549878 0.24148761 -0.99200004
0.11437001 0.24148761 -0.99200004
0.11791851 0.24148761 -0.99200004
0.12235412 0.24148761 -0.99200004
0.12678975 0.24148761 -0.99200004
0.13211249 0.24148761 -0.99200004
0.13743523 0.24148761 -0.99200004
0.14311281 0.24219994 -0.99200004
0.14808071 0.24237804 -0.99200004
-0.046801604 0.21790129 -0.98600006
-0.046630278 0.22220802 -0.98771435
-0.042478807 0.2227792 -0.98800004
-0.038291145 0.22305703 -0.98824996
-0.032760695 0.2236651 -0.98800004
-0.027444629 0.22355238 -0.98750007
-0.022479627 0.22352484 -0.9866001
-0.01682185 0.22409648 -0.98600006
-0.012413062 0.22409648 -0.98600006
-0.0080042742 0.22409648 -0.98600006
-0.0027137294 0.22409648 -0.98600006
0.0025768157 0.22409648 -0.98600006
0.0078673605 0.22409648 -0.98600006
0.011394391 0.22409648 -0.98600006
-0.037215158 0.22655377 -0.98900002
-0.032792956 0.22655377 -0.98900002
-0.027486317 0.22655377 -0.98900002
-0.022179674 0.22655377 -0.98900002
-0.016873032 0.22655377 -0.98900002
-0.01245083 0.22655377 -0.98900002
-0.0080286283 0.22744149 -0.98900002
-0.0027219863 0.22744147 -0.98900002
0.002584656 0.22744147 -0.98900002
0.0078912973 0.22744149 -0.98900002
0.013190373 0.22732693 -0.98850006
0.017593417 0.22709787 -0.98750007
0.021635076 0.2270671 -0.9866001
0.027266026 0.22763661 -0.98600006
0.032556571 0.22763661 -0.98600006
0.037847117 0.22763661 -0.98600006
0.043137662 0.22763661 -0.98600006
0.048428204 0.22940665 -0.98600006
0.051955234 0.22940665 -0.98600006
