# .PCD v0.7 - Point Cloud Data file format
VERSION 0.7
FIELDS x y z
SIZE 4 4 4
TYPE F F F
COUNT 1 1 1
WIDTH 1290
HEIGHT 1
VIEWPOINT 0 0 0 1 0 0 0
POINTS 1290
DATA ascii
-0.029117981 -0.0010968699 0.0979008
-0.026984345 0.00057101058 0.099987835
-0.02701181 0.0019365975 0.099947616
-0.025598288 0.0034929924 0.10132593
-0.02562568 0.0048550051 0.10128582
-0.025653074 0.0062170182 0.1012457
-0.025680466 0.0075790314 0.10120559
-0.02570786 0.0089410441 0.10116548
-0.025735252 0.010303057 0.10112537
-0.025762646 0.01166507 0.10108525
-0.025790038 0.013027083 0.10104514
-0.025817432 0.014389092 0.10100503
-0.025844824 0.015751105 0.10096491
-0.024430545 0.017268177 0.10234433
-0.024457866 0.018626615 0.10230432
-0.024485186 0.019985052 0.10226432
-0.024512507 0.021343492 0.10222431
-0.024539828 0.022701928 0.1021843
-0.02456715 0.024060367 0.10214429
-0.023873424 0.025485611 0.10281438
-0.02390071 0.026842259 0.10277442
-0.023927996 0.028198909 0.10273447
-0.02395528 0.029555561 0.10269451
-0.023982566 0.030912211 0.10265455
-0.02400985 0.032268863 0.1026146
-0.024758397 0.033569433 0.10186424
-0.024785718 0.034927871 0.10182424
-0.024813039 0.036286309 0.10178423
-0.024840361 0.037644748 0.10174422
-0.024867682 0.039003186 0.10170421
-0.024895001 0.040361624 0.10166421
-0.028003756 -0.0010982847 0.097091861
-0.025874473 0.00056960119 0.099182054
-0.025901938 0.0019351882 0.099141836
-0.024491321 0.0034915868 0.10052226
-0.024518713 0.0048535997 0.10048214
-0.024546107 0.0062156124 0.10044203
-0.024573499 0.0075776256 0.10040192
-0.024600893 0.0089396387 0.10036181
-0.024628285 0.010301651 0.1003217
-0.024655679 0.011663664 0.10028158
-0.024683071 0.013025678 0.10024147
-0.024710463 0.014387687 0.10020135
-0.023299169 0.015908336 0.10158279
-0.02332649 0.017266775 0.10154278
-0.023353811 0.018625213 0.10150277
-0.023381133 0.019983651 0.10146276
-0.023408454 0.021342089 0.10142276
-0.023435775 0.022700526 0.10138275
-0.022743538 0.024127558 0.10205383
-0.022770824 0.02548421 0.10201387
-0.022798108 0.02684086 0.10197392
-0.022825394 0.02819751 0.10193396
-0.02285268 0.029554162 0.10189401
-0.022879964 0.030910812 0.10185406
-0.023627022 0.032209594 0.10110269
-0.023654342 0.033568032 0.10106269
-0.023681663 0.03492647 0.10102268
-0.023708984 0.036284909 0.10098267
-0.023736306 0.037643347 0.10094266
-0.023763627 0.039001785 0.10090265
-0.023790948 0.04036022 0.10086264
-0.023818269 0.041718658 0.10082264
-0.02387291 0.044435535 0.10074262
-0.026889529 -0.0010996996 0.096282922
-0.024764612 0.00056819187 0.098376282
-0.024792077 0.0019337789 0.098336063
-0.023384366 0.0034901809 0.099718593
-0.02341176 0.0048521939 0.099678487
-0.022003861 0.0063978685 0.10106128
-0.023466546 0.0075762197 0.099598259
-0.023493938 0.0089382324 0.099558145
-0.023521332 0.010300246 0.099518031
-0.023548724 0.011662259 0.099477917
-0.023576116 0.013024271 0.099437803
-0.022167787 0.014548498 0.10082123
-0.022195108 0.015906934 0.10078122
-0.02222243 0.017265372 0.10074122
-0.022249751 0.018623812 0.10070121
-0.022277072 0.019982249 0.1006612
-0.022304393 0.021340687 0.10062119
-0.022331715 0.022699125 0.10058118
-0.021640932 0.024126157 0.10125332
-0.021668216 0.025482809 0.10121337
-0.021695502 0.026839459 0.10117342
-0.021722786 0.028196109 0.10113346
-0.021750072 0.029552761 0.1010935
-0.021777356 0.030909412 0.10105355
-0.022522962 0.032208193 0.10030113
-0.022550283 0.033566628 0.10026112
-0.022577602 0.034925066 0.10022112
-0.022604924 0.036283504 0.10018111
-0.022632245 0.037641943 0.1001411
-0.021941068 0.039049316 0.10081382
-0.021968352 0.040405966 0.10077386
-0.021995638 0.041762616 0.10073391
-0.02274153 0.043075696 0.09998107
-0.022050207 0.044475917 0.100654
-0.022796171 0.045792572 0.099901058
-0.028611654 -0.0028823016 0.092665523
-0.027207347 -0.0013026593 0.094049431
-0.025086826 0.00036881771 0.096145898
-0.023682211 0.0019323695 0.09753029
-0.0222774 0.0034887753 0.098914921
-0.022304794 0.0048507885 0.098874815
-0.022332186 0.0062128012 0.098834701
-0.02235958 0.0075748144 0.098794587
-0.022386972 0.0089368271 0.098754473
-0.022414364 0.01029884 0.098714359
-0.022441758 0.011660853 0.098674245
-0.02246915 0.013022866 0.098634131
-0.022496544 0.014384875 0.098594025
-0.021091055 0.015905531 0.099979669
-0.021118376 0.017263971 0.099939659
-0.021145696 0.01862241 0.09989965
-0.021173017 0.019980846 0.099859647
-0.021200338 0.021339286 0.099819638
-0.02122766 0.022697723 0.099779628
-0.021254981 0.024056161 0.099739619
-0.020565616 0.025481408 0.10041287
-0.0205929 0.026838059 0.10037291
-0.020620186 0.028194709 0.10033295
-0.02064747 0.029551361 0.100293
-0.021391585 0.03084835 0.099539585
-0.021418907 0.032206789 0.099499576
-0.021446228 0.033565227 0.099459566
-0.021473549 0.034923665 0.099419564
-0.021500871 0.036282104 0.099379554
-0.020811182 0.037691265 0.10005327
-0.020838466 0.039047915 0.10001332
-0.020865751 0.040404566 0.099973358
-0.020893035 0.041761216 0.099933408
-0.021637475 0.043074295 0.099179514
-0.020947605 0.044474516 0.099853493
-0.021692118 0.045791168 0.099099502
-0.028178379 -0.0043661706 0.091179751
-0.027491618 -0.0028837237 0.091852367
-0.026090221 -0.0013040778 0.093238384
-0.024688652 0.00026841857 0.094624661
-0.024001589 0.0017365656 0.095297687
-0.022599809 0.0032965508 0.096684292
-0.022627274 0.0046621379 0.096644074
-0.021225225 0.0062113958 0.098031029
-0.021252619 0.0075734085 0.097990923
-0.021280011 0.0089354217 0.097950809
-0.021307405 0.010297434 0.097910695
-0.021334797 0.011659447 0.097870581
-0.021362191 0.013021461 0.097830467
-0.021389583 0.01438347 0.097790353
-0.021416975 0.015745483 0.097750239
-0.020014321 0.017262569 0.099138103
-0.020041643 0.018621007 0.099098094
-0.020068964 0.019979445 0.099058084
-0.020096283 0.021337884 0.099018082
-0.020123605 0.02269632 0.098978072
-0.020150926 0.02405476 0.098938063
-0.020178247 0.025413197 0.098898053
-0.0194903 0.02683666 0.099572405
-0.019517584 0.02819331 0.099532455
-0.01954487 0.029549962 0.099492498
-0.020287532 0.030846948 0.09873803
-0.020314852 0.032205388 0.09869802
-0.020342173 0.033563826 0.09865801
-0.020369494 0.034922265 0.098618001
-0.020396816 0.036280703 0.098577999
-0.019708579 0.037689865 0.099252768
-0.019735865 0.039046515 0.09921281
-0.019763149 0.040403165 0.09917286
-0.019790435 0.041759815 0.099132903
-0.02053342 0.04307289 0.098377958
-0.019845005 0.044473115 0.099052995
-0.020588063 0.045789767 0.098297946
-0.02845517 -0.0059597516 0.088977732
-0.027056895 -0.0043675946 0.090365537
-0.02637158 -0.0028851461 0.091039203
-0.024973089 -0.0013054963 0.092427328
-0.023574427 0.00026700369 0.093815722
-0.023602 0.0016379554 0.093775347
-0.022916354 0.0031043172 0.094449475
-0.021517407 0.0046607284 0.095838301
-0.021544874 0.0060263155 0.095798083
-0.020145658 0.0075720027 0.097187251
-0.02017305 0.0089340163 0.097147137
-0.020200444 0.010296029 0.09710703
-0.020227836 0.011658042 0.097066917
-0.02025523 0.013020054 0.097026803
-0.020282622 0.014382064 0.096986689
-0.020310016 0.015744077 0.096946575
-0.020337408 0.01710609 0.096906461
-0.020364802 0.018468104 0.096866347
-0.020392194 0.019830117 0.09682624
-0.020419588 0.02119213 0.096786126
-0.019019552 0.022694919 0.098176517
-0.019046873 0.024053358 0.098136507
-0.019074192 0.025411794 0.098096497
-0.019101514 0.026770234 0.098056495
-0.019128835 0.028128671 0.098016486
-0.019156156 0.029487109 0.097976476
-0.019183477 0.030845547 0.097936466
-0.019210799 0.032203987 0.097896464
-0.01923812 0.033562422 0.097856455
-0.019265439 0.03492086 0.097816445
-0.019292761 0.036279298 0.097776435
-0.019320082 0.037637737 0.097736433
-0.019347403 0.038996175 0.097696424
-0.018660542 0.040401764 0.098372355
-0.019402046 0.041713051 0.097616412
-0.019429367 0.04307149 0.097576402
-0.019456688 0.044429928 0.097536393
-0.019484008 0.045788366 0.097496383
-0.027302954 -0.0073446403 0.088202156
-0.027330779 -0.0059611793 0.088161409
-0.025935404 -0.0043690186 0.089551322
-0.025251549 -0.0028865682 0.090226047
-0.023855958 -0.001306915 0.09161628
-0.0224602 0.00026558881 0.093006782
-0.022487773 0.0016365405 0.0929664
-0.022515345 0.0030074886 0.092926025
-0.021831118 0.0044720653 0.093601272
-0.020435007 0.0060249059 0.094992302
-0.019038698 0.0075705973 0.096383587
-0.019066092 0.00893261 0.096343473
-0.020517401 0.010121671 0.094871648
-0.020544866 0.011487258 0.094831429
-0.020572331 0.012852845 0.094791211
-0.019175662 0.014380658 0.096183024
-0.019203056 0.015742671 0.09614291
-0.019230448 0.017104683 0.096102796
-0.019257842 0.0184667 0.096062683
-0.019285234 0.019828713 0.096022569
-0.019312628 0.021190725 0.095982455
-0.01934002 0.022552738 0.095942341
-0.017942818 0.024051955 0.097334951
-0.017970139 0.025410393 0.097294942
-0.01799746 0.026768832 0.097254932
-0.01802478 0.028127268 0.09721493
-0.018052101 0.029485708 0.09717492
-0.018079422 0.030844145 0.097134911
-0.018106744 0.032202583 0.097094908
-0.018134065 0.033561021 0.097054899
-0.018161386 0.034919459 0.097014889
-0.018188708 0.036277898 0.09697488
-0.018216029 0.037636336 0.096934877
-0.018243348 0.038994774 0.096894868
-0.01827067 0.040353213 0.096854858
-0.018297991 0.041711651 0.096814848
-0.018325312 0.043070089 0.096774846
-0.018379955 0.045786962 0.096694827
-0.026178557 -0.007346068 0.087385826
-0.026206382 -0.0059626075 0.087345086
-0.024813915 -0.0043704431 0.088737108
-0.02413151 -0.0028879906 0.089412883
-0.022738826 -0.0013083335 0.090805225
-0.022766471 6.6192224e-05 0.090764746
-0.021373553 0.0016351256 0.092157468
-0.021401126 0.0030060736 0.092117094
-0.021428699 0.0043770252 0.092076711
-0.020745883 0.0058398168 0.09275306
-0.019352598 0.0073890835 0.094146304
-0.019380063 0.0087546706 0.094106086
-0.020856028 0.011316464 0.092591763
-0.020883566 0.01268563 0.09255144
-0.020911103 0.01405479 0.092511117
-0.019517388 0.015582609 0.093904994
-0.019544853 0.016948201 0.093864776
-0.019572318 0.018313786 0.093824558
-0.019599782 0.019679373 0.09378434
-0.019627247 0.021044958 0.093744121
-0.019654712 0.022410547 0.093703903
-0.018260453 0.023913344 0.095098563
-0.018287845 0.025275359 0.095058449
-0.018315239 0.02663737 0.095018342
-0.016920727 0.028125867 0.096413374
-0.016948048 0.029484306 0.096373364
-0.016975369 0.030842742 0.096333355
-0.017002689 0.032201182 0.096293345
-0.01703001 0.03355962 0.096253343
-0.017057331 0.034918059 0.096213333
-0.017084653 0.036276497 0.096173324
-0.017111974 0.037634935 0.096133314
-0.017139295 0.038993374 0.096093312
-0.017166616 0.040351808 0.096053302
-0.017193936 0.041710246 0.096013293
-0.018643953 0.042981524 0.094536982
-0.023651097 0.044050984 0.089469343
-0.018698739 0.045705549 0.094456762
-0.023706386 0.046800032 0.089388378
-0.025054166 -0.0073474958 0.086569503
-0.02508199 -0.0059640352 0.086528763
-0.023692435 -0.004371867 0.087922901
-0.023011474 -0.0028894127 0.088599727
-0.02303919 -0.001511313 0.088559136
-0.021649351 6.4773682e-05 0.089953706
-0.021676995 0.0014392957 0.089913219
-0.020286895 0.0030046587 0.091308147
-0.020314468 0.0043756105 0.091267765
-0.020342041 0.0057465583 0.09122739
-0.019660654 0.007207565 0.091904856
-0.019688189 0.0085767256 0.091864534
-0.019715726 0.0099458909 0.091824204
-0.019743262 0.011315051 0.091783881
-0.020479903 0.012601309 0.091025509
-0.020507475 0.013972257 0.090985134
-0.020535048 0.015343209 0.09094476
-0.020562621 0.016714158 0.090904385
-0.019880947 0.018160865 0.091582268
-0.019908482 0.019530026 0.091541946
-0.01993602 0.02089919 0.091501616
-0.019963557 0.022268353 0.091461293
-0.01857231 0.023774724 0.092857912
-0.018599775 0.025140313 0.092817694
-0.018627239 0.026505901 0.092777476
-0.01723567 0.027997976 0.094174556
-0.017263064 0.029359989 0.09413445
-0.017290456 0.030722002 0.094094336
-0.01731785 0.032084014 0.094054222
-0.017345242 0.033446029 0.094014108
-0.017372636 0.034808043 0.093973994
-0.017400028 0.036170054 0.09393388
-0.017427422 0.037532069 0.093893766
-0.017454814 0.03889408 0.093853652
-0.017482208 0.040256094 0.093813546
-0.0175096 0.041618105 0.093773432
-0.018956818 0.042892955 0.092294857
-0.022533977 0.044049565 0.088658303
-0.019011747 0.045624129 0.09221442
-0.022589266 0.046798617 0.088577338
-0.022616912 0.048173141 0.088536859
-0.024064699 0.049478374 0.087057434
-0.024802532 0.050823618 0.086297326
-0.026250612 0.052141361 0.084817491
-0.023929769 -0.0073489235 0.08575318
-0.023957595 -0.0059654629 0.085712433
-0.023985419 -0.0045820023 0.085671693
-0.022598697 -0.0029934044 0.087068044
-0.022626448 -0.0016135176 0.087027401
-0.021946874 -0.00013463557 0.087705396
-0.021974592 0.0012434642 0.087664805
-0.020587509 0.0028124028 0.089061692
-0.020615153 0.0041869283 0.089021206
-0.020642798 0.0055614542 0.088980727
-0.020670442 0.006935976 0.088940248
-0.019282959 0.008487043 0.090337701
-0.019310532 0.0098579945 0.090297319
-0.019338105 0.011228943 0.090256944
-0.020781022 0.012434076 0.088778317
-0.020808665 0.013808601 0.088737838
-0.02083631 0.015183127 0.088697359
-0.020863954 0.016557653 0.088656873
-0.020891599 0.017932177 0.088616394
-0.020919243 0.019306703 0.088575915
-0.020946888 0.020681225 0.088535435
-0.020974532 0.022055751 0.088494949
-0.019586259 0.023567494 0.089893565
-0.019613832 0.024938444 0.089853182
-0.019641405 0.026309393 0.089812808
-0.019668978 0.027680343 0.089772433
-0.01969655 0.029051295 0.089732058
-0.019724123 0.030422244 0.089691684
-0.019751696 0.031793196 0.089651302
-0.019779269 0.033164144 0.089610927
-0.019098615 0.034589402 0.090290502
-0.019126151 0.035958562 0.090250172
-0.019153688 0.037327725 0.090209849
-0.019181225 0.038696889 0.090169527
-0.01991713 0.040018894 0.089409046
-0.019944703 0.041389842 0.089368671
-0.021389201 0.042673621 0.087887727
-0.021416845 0.044048145 0.087847248
-0.02144449 0.045422673 0.087806769
-0.021472136 0.046797197 0.08776629
-0.02291695 0.048098855 0.086284861
-0.022944666 0.049476951 0.086244278
-0.023681041 0.050822195 0.085483111
-0.025126215 0.052139934 0.084001161
-0.025154039 0.053523395 0.083960421
-0.025600225 -0.0091726985 0.082100078
-0.024216769 -0.0075662197 0.083498016
-0.022833204 -0.0059668906 0.084896117
-0.022861028 -0.00458343 0.08485537
-0.022888852 -0.0031999692 0.084814623
-0.021504965 -0.0016149417 0.086213194
-0.021532716 -0.00023505128 0.086172551
-0.02156047 0.0011448354 0.086131915
-0.020882269 0.0026201415 0.086811058
-0.020909986 0.0039982414 0.086770475
-0.020937702 0.0053763408 0.086729884
-0.02096542 0.0067544407 0.086689301
-0.019580955 0.0083090831 0.088088714
-0.0196086 0.009683609 0.088048235
-0.021048568 0.010888739 0.086567536
-0.021076284 0.01226684 0.086526953
-0.021104001 0.013644939 0.086486369
-0.021131719 0.015023039 0.086445779
-0.021159435 0.016401138 0.086405195
-0.021187151 0.017779239 0.086364605
-0.021214867 0.019157339 0.086324021
-0.021242583 0.020535439 0.08628343
-0.021270299 0.02191354 0.086242847
-0.021298017 0.023291638 0.086202256
-0.01991269 0.024803383 0.087602936
-0.019940335 0.026177905 0.087562457
-0.019967979 0.027552431 0.08752197
-0.019995624 0.028926956 0.087481491
-0.020023268 0.030301481 0.087441012
-0.020050913 0.031676006 0.087400533
-0.020078558 0.03305053 0.087360047
-0.020106202 0.034425054 0.087319568
-0.018720187 0.035904627 0.088721238
-0.01874776 0.037275579 0.088680856
-0.018775333 0.038646527 0.088640481
-0.02021678 0.039923154 0.087157644
-0.020244425 0.041297678 0.087117158
-0.020272069 0.042672202 0.087076679
-0.021713763 0.043963131 0.085593462
-0.020327359 0.045421254 0.086995713
-0.021769196 0.046719331 0.085512288
-0.021796914 0.048097432 0.085471697
-0.022531804 0.049440883 0.08470954
-0.022559557 0.050820768 0.084668897
-0.024001824 0.052138507 0.083184846
-0.025444202 0.053463396 0.081700623
-0.026886757 0.054795433 0.080216147
-0.030451508 0.056057483 0.076565936
-0.024470016 -0.0091741337 0.081279539
-0.023089467 -0.0075676511 0.082679585
-0.021708807 -0.0059683183 0.084079787
-0.021736631 -0.0045848577 0.084039047
-0.021764455 -0.0032013969 0.0839983
-0.02179228 -0.0018179326 0.083957553
-0.021820104 -0.00043447185 0.083916813
-0.021847928 0.00094898889 0.083876066
-0.020466732 0.0025232981 0.085277058
-0.020494483 0.0039031848 0.085236423
-0.020522237 0.0052830717 0.08519578
-0.020549988 0.0066629583 0.085155137
-0.020577742 0.0080428449 0.085114501
-0.020605493 0.0094227316 0.085073858
-0.020633245 0.010802618 0.085033223
-0.020660998 0.012182505 0.08499258
-0.02068875 0.013562392 0.084951945
-0.020716503 0.014942282 0.084911302
-0.020744255 0.016322169 0.084870666
-0.020772008 0.017702054 0.084830023
-0.02079976 0.019081943 0.084789388
-0.020827513 0.020461831 0.084748745
-0.020855265 0.021841718 0.084708109
-0.020883018 0.023221605 0.084667467
-0.02091077 0.024601491 0.084626831
-0.020938523 0.025981378 0.084586188
-0.020261135 0.027424516 0.085267343
-0.020288851 0.028802613 0.085226759
-0.020316567 0.030180713 0.085186169
-0.020344283 0.031558812 0.085145585
-0.020372 0.032936912 0.085104994
-0.020399718 0.034315012 0.085064411
-0.019016715 0.035798162 0.086468033
-0.01904436 0.037172686 0.086427554
-0.019072004 0.03854721 0.086387075
-0.019099649 0.039921734 0.086346589
-0.020538298 0.04120551 0.08486148
-0.021271551 0.042540021 0.084098518
-0.021299304 0.04391991 0.084057882
-0.021327056 0.045299798 0.08401724
-0.021354808 0.046679683 0.083976604
-0.021382561 0.048059572 0.083935961
-0.021410313 0.049439456 0.083895326
-0.022849603 0.050753616 0.082409263
-0.024289003 0.052074928 0.080923036
-0.024316899 0.053461965 0.080882184
-0.025756549 0.054793999 0.0793956
-0.027902208 0.056107469 0.077185959
-0.03075405 0.057407737 0.074253
-0.03290021 0.058744442 0.072042622
-0.034340546 0.060112227 0.070555031
-0.024014568 -0.010677692 0.07977853
-0.023339814 -0.0091755688 0.080458999
-0.02196217 -0.0075690825 0.081861153
-0.021990065 -0.0061820438 0.081820302
-0.02061224 -0.0045862854 0.083222724
-0.020640064 -0.0032028249 0.083181977
-0.02066789 -0.0018193603 0.08314123
-0.020695714 -0.00043589962 0.08310049
-0.020723538 0.00094756106 0.083059743
-0.020751363 0.0023310254 0.083019003
-0.020779187 0.0037144863 0.082978256
-0.020807011 0.0050979471 0.082937509
-0.020834835 0.0064814114 0.082896769
-0.020862659 0.007864872 0.082856022
-0.020890484 0.0092483331 0.082815275
-0.020918308 0.010631797 0.082774535
-0.020946132 0.012015258 0.082733788
-0.020973956 0.013398719 0.08269304
-0.02100178 0.014782179 0.082652301
-0.021029605 0.016165644 0.082611553
-0.021057429 0.017549105 0.082570806
-0.021085253 0.018932568 0.082530066
-0.021113077 0.020316027 0.082489319
-0.021140903 0.02169949 0.082448579
-0.021168727 0.023082953 0.082407832
-0.021196552 0.024466414 0.082367085
-0.021224376 0.025849877 0.082326345
-0.0212522 0.027233338 0.082285598
-0.019872537 0.028739728 0.083690695
-0.019900288 0.030119615 0.08365006
-0.019928042 0.031499501 0.083609417
-0.019955793 0.03287939 0.083568782
-0.019983547 0.034259278 0.083528139
-0.019307395 0.03569169 0.084210664
-0.019335112 0.03706979 0.084170073
-0.019362828 0.03844789 0.08412949
-0.020094555 0.039778825 0.083365582
-0.021530442 0.041067954 0.081878155
-0.021558266 0.042451419 0.081837408
-0.02158609 0.04383488 0.081796661
-0.021613916 0.045218341 0.081755921
-0.021641741 0.046601802 0.081715174
-0.021669565 0.047985267 0.081674427
-0.021697389 0.049368728 0.081633687
-0.023133809 0.05068646 0.080145456
-0.024570409 0.052011337 0.078656971
-0.024598377 0.053401951 0.078616016
-0.025330758 0.054765061 0.077851161
-0.028176572 0.056054596 0.074914299
-0.029613676 0.057406288 0.073425077
-0.031755477 0.058742989 0.071211532
-0.031783808 0.060151473 0.071170054
-0.033221312 0.06152283 0.069680251
-0.022882912 -0.010679129 0.078956932
-0.022209611 -0.009177004 0.079638451
-0.022237578 -0.007786395 0.079597503
-0.020862769 -0.0061834753 0.08100187
-0.020890664 -0.0047964407 0.080961019
-0.019515669 -0.0032042526 0.082365654
-0.019543493 -0.0018207881 0.082324907
-0.019571317 -0.00043732743 0.08228416
-0.02100225 0.00075170561 0.08079762
-0.021030145 0.0021387441 0.080756769
-0.01965479 0.0037130585 0.082161933
-0.019682614 0.0050965194 0.082121186
-0.021113833 0.0062998519 0.080634221
-0.02114173 0.0076868902 0.08059337
-0.021169627 0.0090739252 0.080552518
-0.019793911 0.010630369 0.081958205
-0.019821735 0.01201383 0.081917465
-0.019849559 0.013397291 0.081876718
-0.019877383 0.014780751 0.08183597
-0.019905208 0.016164215 0.081795231
-0.019933032 0.017547676 0.081754483
-0.019960858 0.018931139 0.081713736
-0.019988682 0.0203146 0.081672996
-0.020016506 0.021698063 0.081632249
-0.020044331 0.023081524 0.081591502
-0.020072155 0.024464985 0.081550762
-0.020099979 0.025848448 0.081510015
-0.020127803 0.027231911 0.081469275
-0.020155627 0.028615372 0.081428528
-0.020183451 0.029998835 0.081387781
-0.020211276 0.031382296 0.081347041
-0.0202391 0.032765757 0.081306294
-0.020266924 0.034149218 0.081265546
-0.020294748 0.035532679 0.081224807
-0.020322572 0.036916144 0.081184059
-0.020350397 0.038299605 0.081143312
-0.020378221 0.039683066 0.081102572
-0.021811239 0.040975772 0.07961297
-0.021839136 0.042362805 0.079572126
-0.021867031 0.043749843 0.079531275
-0.021894928 0.04513688 0.079490423
-0.021922825 0.046523917 0.079449572
-0.02195072 0.047910955 0.079408728
-0.021978617 0.049297992 0.079367876
-0.023412239 0.050619293 0.07787738
-0.024143094 0.051978823 0.077111587
-0.024171097 0.053371225 0.077070579
-0.025605008 0.054708611 0.075579658
-0.028445087 0.056001715 0.072638474
-0.029879393 0.05735698 0.071146987
-0.030610751 0.058741536 0.070380449
-0.030639078 0.06015002 0.070338964
-0.030667407 0.061558507 0.070297487
-0.032102071 0.06293343 0.068805464
-0.027936328 -0.017318148 0.071789362
-0.027264947 -0.015792783 0.072471254
-0.027293239 -0.014386091 0.072429821
-0.025921946 -0.012752782 0.07383541
-0.024550539 -0.011126629 0.075241148
-0.021779254 -0.0092881694 0.078094326
-0.021107376 -0.0077878302 0.078776956
-0.021135343 -0.006397218 0.078736
-0.019763362 -0.0047978722 0.08014258
-0.019791258 -0.0034108339 0.080101736
-0.019819153 -0.0020237991 0.080060884
-0.01984705 -0.00063676061 0.080020033
-0.019874947 0.00075027411 0.079979181
-0.019902842 0.0021373127 0.079938337
-0.019930739 0.0035243472 0.079897486
-0.019958636 0.0049113859 0.079856634
-0.019986531 0.0062984205 0.079815783
-0.020014428 0.0076854588 0.079774939
-0.020042324 0.0090724938 0.079734087
-0.020070219 0.010459532 0.079693235
-0.02149893 0.011680732 0.078203589
-0.021526897 0.013071345 0.078162633
-0.021554865 0.014461958 0.078121677
-0.020181805 0.016007679 0.079529837
-0.020209702 0.017394716 0.079488985
-0.020237597 0.018781751 0.079448134
-0.020265494 0.020168789 0.07940729
-0.02029339 0.021555824 0.079366438
-0.020321285 0.022942862 0.079325587
-0.020349182 0.024329899 0.079284735
-0.020377079 0.025716936 0.079243883
-0.020404974 0.027103974 0.079203039
-0.020432871 0.028491009 0.079162188
-0.020460768 0.029878046 0.079121336
-0.020488663 0.031265084 0.079080485
-0.020516559 0.032652121 0.079039641
-0.020544456 0.034039155 0.078998789
-0.020572351 0.035426192 0.078957938
-0.020600248 0.036813229 0.078917086
-0.020628145 0.038200267 0.078876235
-0.02065604 0.0395873 0.078835391
-0.020683937 0.040974338 0.078794539
-0.020711834 0.042361375 0.078753687
-0.020739729 0.043748412 0.078712836
-0.020767625 0.04513545 0.078671992
-0.020795522 0.046522487 0.07863114
-0.020823417 0.047909524 0.078590289
-0.022254068 0.049227245 0.077097796
-0.022983428 0.050584987 0.07633099
-0.024414295 0.051915225 0.074838176
-0.024442371 0.053311199 0.074797064
-0.025873488 0.054652158 0.073303893
-0.027304715 0.056000266 0.071810551
-0.028736113 0.057355527 0.070316948
-0.028764404 0.058762226 0.070275523
-0.029494347 0.060148567 0.069507875
-0.029522674 0.061557055 0.069466397
-0.030954434 0.062931977 0.067972265
-0.02815963 -0.018968996 0.069551103
-0.026791595 -0.017319601 0.070958272
-0.026121669 -0.015794234 0.071641214
-0.024753353 -0.014157355 0.073048808
-0.023384923 -0.012527621 0.074456558
-0.023413071 -0.011128074 0.074415334
-0.02204439 -0.0095090633 0.075823449
-0.020675601 -0.0078972066 0.07723172
-0.020005135 -0.0063986531 0.07791546
-0.020033102 -0.0050080405 0.077874504
-0.018663961 -0.0034122653 0.079283305
-0.018691858 -0.0020252306 0.079242453
-0.018719753 -0.00063819211 0.079201601
-0.020144975 0.00055440539 0.077710681
-0.020172942 0.0019450178 0.077669725
-0.020200912 0.0033356303 0.077628769
-0.02022888 0.004726239 0.077587813
-0.020955643 0.006026784 0.07682164
-0.020983648 0.0074191834 0.076780632
-0.021011651 0.0088115828 0.076739632
-0.021039655 0.010203978 0.076698624
-0.021067658 0.011596378 0.076657616
-0.021095663 0.012988778 0.076616608
-0.021123666 0.014381177 0.0765756
-0.021151671 0.015773576 0.076534592
-0.021179674 0.017165976 0.076493584
-0.020508561 0.018632356 0.077178262
-0.020536529 0.020022966 0.077137306
-0.020564497 0.02141358 0.077096358
-0.020592464 0.022804189 0.077055402
-0.020620434 0.024194803 0.077014446
-0.020648401 0.025585413 0.07697349
-0.020676369 0.026976025 0.076932535
-0.020704336 0.028366636 0.076891579
-0.020732306 0.029757248 0.076850623
-0.020760274 0.031147858 0.076809667
-0.02148772 0.032482367 0.076042496
-0.021515723 0.033874765 0.076001488
-0.021543728 0.035267163 0.07596048
-0.021571731 0.036659561 0.075919472
-0.021599736 0.038051963 0.075878464
-0.021627739 0.039444361 0.075837456
-0.020956051 0.04088214 0.076522984
-0.020984018 0.042272754 0.076482028
-0.021011986 0.043663364 0.076441072
-0.021739757 0.045013957 0.075673424
-0.021067923 0.046444587 0.07635916
-0.021795765 0.047798753 0.075591408
-0.023223581 0.049121838 0.074096702
-0.023251656 0.050517809 0.074055582
-0.023279732 0.051913783 0.07401447
-0.024707872 0.053251166 0.072519295
-0.024736021 0.054650713 0.072478071
-0.02616434 0.055998821 0.070982628
-0.026192559 0.057401944 0.070941299
-0.027621124 0.058760773 0.069445483
-0.027649416 0.060167473 0.069404058
-0.027677707 0.061574172 0.069362625
-0.028406268 0.062964082 0.068593822
-0.027011991 -0.018970452 0.068717904
-0.025646864 -0.017321056 0.070127182
-0.024978394 -0.015795687 0.07081119
-0.025006685 -0.014388995 0.070769757
-0.022247456 -0.012529065 0.073630735
-0.022275602 -0.011129518 0.073589519
-0.020909829 -0.0095105041 0.074999742
-0.020937905 -0.008114527 0.07495863
-0.019571951 -0.0065062447 0.076369114
-0.019599954 -0.0051138452 0.076328106
-0.019627959 -0.0037214456 0.076287106
-0.019655963 -0.0023290461 0.076246098
-0.019683966 -0.00093664671 0.07620509
-0.019711971 0.00045574902 0.076164082
-0.021134436 0.0016572874 0.074670836
-0.021162514 0.003053261 0.074629724
-0.019795982 0.0046329475 0.076041058
-0.021218665 0.0058452077 0.074547499
-0.021246741 0.0072411848 0.074506387
-0.021274816 0.0086371582 0.074465275
-0.021302892 0.010033132 0.074424163
-0.021330969 0.011429105 0.074383043
-0.021359045 0.012825079 0.07434193
-0.021387121 0.014221053 0.074300818
-0.021415196 0.015617026 0.074259706
-0.021443272 0.017012998 0.074218594
-0.020076023 0.018556936 0.075630978
-0.020104026 0.019949337 0.07558997
-0.020132031 0.021341737 0.075548962
-0.020160036 0.022734135 0.075507954
-0.020188039 0.024126533 0.075466946
-0.020216044 0.025518933 0.075425938
-0.020244047 0.026911333 0.07538493
-0.020272052 0.028303731 0.075343922
-0.020300055 0.029696129 0.075302914
-0.021724032 0.030972736 0.073807463
-0.021752108 0.032368708 0.073766351
-0.021780184 0.033764683 0.073725238
-0.021808259 0.035160657 0.073684126
-0.021836335 0.036556631 0.073643014
-0.021864412 0.037952606 0.073601894
-0.021892488 0.03934858 0.073560782
-0.021920564 0.040744554 0.073519669
-0.020552091 0.042227719 0.074933842
-0.020580096 0.043620121 0.074892841
-0.022004791 0.044932473 0.073396333
-0.020636104 0.046404917 0.074810825
-0.022060944 0.047724422 0.073314108
-0.022089019 0.049120396 0.073272996
-0.023514109 0.050450623 0.071775913
-0.023542257 0.05185017 0.071734697
-0.023570403 0.05324972 0.07169348
-0.023598552 0.054649267 0.071652256
-0.025023965 0.055997372 0.070154697
-0.025052186 0.057400495 0.070113376
-0.025080405 0.058803618 0.070072055
-0.026506143 0.06016602 0.068574026
-0.026534434 0.061572719 0.068532594
-0.026562726 0.062979415 0.068491168
-0.025864352 -0.018971911 0.067884706
-0.025892751 -0.017559851 0.067843117
-0.024530463 -0.015914023 0.069254614
-0.02455879 -0.014505536 0.06921313
-0.023891697 -0.012983744 0.069898292
-0.021138135 -0.011130963 0.072763704
-0.021166284 -0.009731411 0.072722487
-0.021194432 -0.0083318632 0.072681271
-0.019831419 -0.0067199939 0.074093811
-0.019859495 -0.0053240205 0.074052699
-0.01988757 -0.0039280471 0.074011587
-0.019915648 -0.0025320738 0.073970474
-0.019943723 -0.0011361002 0.073929355
-0.019971799 0.00025987325 0.073888242
-0.019999875 0.0016558467 0.07384713
-0.02002795 0.0030518202 0.073806018
-0.020056026 0.0044477936 0.073764905
-0.020084104 0.005843767 0.073723793
-0.021504058 0.0070631695 0.072227865
-0.021532206 0.0084627206 0.072186649
-0.021560352 0.0098622683 0.072145432
-0.021588501 0.011261816 0.072104208
-0.021616649 0.012661367 0.072062992
-0.021644797 0.014060915 0.072021775
-0.020280635 0.015615585 0.073435999
-0.020308711 0.017011559 0.073394887
-0.020336786 0.018407533 0.073353775
-0.020364862 0.019803505 0.073312663
-0.020392938 0.02119948 0.07327155
-0.020421013 0.022595452 0.073230438
-0.020449091 0.023991426 0.073189326
-0.020477166 0.025387401 0.073148206
-0.020505242 0.026783375 0.073107094
-0.020533318 0.028179348 0.073065981
-0.020561393 0.029575322 0.073024869
-0.021982571 0.030855499 0.071527153
-0.022010719 0.032255046 0.071485937
-0.022038866 0.033654597 0.07144472
-0.022067014 0.035054144 0.071403496
-0.022095162 0.036453694 0.071362279
-0.022123311 0.037853241 0.071321063
-0.022151457 0.039252792 0.071279846
-0.020786002 0.040743113 0.072695963
-0.020814078 0.042139087 0.072654851
-0.020842154 0.043535061 0.072613738
-0.020870229 0.044931035 0.072572626
-0.020898305 0.046327006 0.072531514
-0.020926381 0.04772298 0.072490402
-0.020954458 0.049118955 0.072449289
-0.02237664 0.050449178 0.070950098
-0.022404788 0.051848728 0.070908882
-0.022432936 0.053248275 0.070867658
-0.023855373 0.054592799 0.069368102
-0.023883592 0.055995923 0.069326773
-0.023911811 0.057399049 0.069285452
-0.023940032 0.058802173 0.069244124
-0.025362862 0.060164571 0.067743987
-0.025391154 0.061571267 0.067702562
-0.025419446 0.062977962 0.067661129
-0.024716718 -0.018973367 0.067051508
-0.024745118 -0.017561307 0.067009918
-0.02338573 -0.015915476 0.068423524
-0.023414059 -0.01450699 0.06838204
-0.023442386 -0.013098507 0.068340562
-0.022776708 -0.0115785 0.069026828
-0.02141689 -0.0099523272 0.07044106
-0.020056963 -0.0083333077 0.071855456
-0.020085111 -0.0069337604 0.071814232
-0.02011326 -0.0055342093 0.071773015
-0.020141406 -0.004134662 0.071731798
-0.020169554 -0.0027351144 0.071690582
-0.020197703 -0.0013355631 0.071649358
-0.020225851 6.3984269e-05 0.071608141
-0.020253997 0.0014635317 0.071566924
-0.020282146 0.002863083 0.071525708
-0.020310294 0.0042626304 0.071484484
-0.021727307 0.0054820315 0.0699865
-0.021755528 0.0068851528 0.069945179
-0.021783747 0.0082882782 0.069903851
-0.021811966 0.0096913995 0.06986253
-0.021840187 0.011094525 0.069821209
-0.021868406 0.01249765 0.06977988
-0.021896625 0.013900772 0.069738559
-0.020535477 0.015459018 0.071154743
-0.020563625 0.016858568 0.071113519
-0.020591773 0.018258117 0.071072303
-0.02061992 0.019657666 0.071031086
-0.020648068 0.021057213 0.07098987
-0.020676216 0.022456761 0.070948645
-0.020704364 0.023856312 0.070907429
-0.020732511 0.025255859 0.070866212
-0.020760659 0.026655408 0.070824996
-0.020788807 0.028054956 0.070783779
-0.020816956 0.029454505 0.070742555
-0.020845102 0.030854054 0.070701338
-0.02087325 0.032253601 0.070660122
-0.020901399 0.033653151 0.070618905
-0.020929547 0.035052698 0.070577681
-0.020957693 0.036452249 0.070536464
-0.020985842 0.037851799 0.070495248
-0.02101399 0.039251346 0.070454031
-0.021042138 0.040650893 0.070412807
-0.021070285 0.042050444 0.070371591
-0.021098433 0.04344999 0.070330374
-0.021126581 0.044849541 0.070289157
-0.02115473 0.046249088 0.070247941
-0.021182876 0.047648638 0.070206717
-0.021211024 0.049048185 0.0701655
-0.021239173 0.050447736 0.070124283
-0.021267321 0.051847283 0.070083067
-0.022686779 0.053188231 0.068581499
-0.022714999 0.054591354 0.068540171
-0.022743218 0.055994477 0.06849885
-0.022771439 0.0573976 0.068457529
-0.022799658 0.058800723 0.068416201
-0.024219582 0.060163118 0.066913955
-0.024247874 0.061569817 0.06687253
-0.024276165 0.062976517 0.066831097
-0.023569079 -0.018974826 0.066218309
-0.023597479 -0.017562766 0.06617672
-0.022240996 -0.015916929 0.067592435
-0.022269325 -0.014508443 0.06755095
-0.021605136 -0.012986647 0.068238221
-0.018863199 -0.011133851 0.071112074
-0.018891348 -0.0097343 0.071070857
-0.018919496 -0.0083347522 0.071029633
-0.017562289 -0.0067228754 0.072446391
-0.017590366 -0.005326902 0.072405279
-0.017618442 -0.0039309287 0.072364166
-0.017646518 -0.002534955 0.072323054
-0.017674593 -0.0011389817 0.072281942
-0.017702669 0.00025699186 0.072240829
-0.017730745 0.0016529653 0.072199717
-0.01775882 0.0030489387 0.072158605
-0.017786898 0.0044449121 0.072117493
-0.017814973 0.0058408859 0.072076373
-0.019229122 0.007060281 0.070576236
-0.01925727 0.0084598325 0.070535019
-0.019285418 0.0098593794 0.070493795
-0.019313565 0.011258927 0.070452578
-0.019341713 0.012658479 0.070411362
-0.019369861 0.014058026 0.070370145
-0.018011505 0.015612704 0.071788587
-0.01803958 0.017008677 0.071747474
-0.018067656 0.018404653 0.071706362
-0.018095732 0.019800624 0.071665242
-0.018123809 0.021196598 0.07162413
-0.018151885 0.022592571 0.071583018
-0.018179961 0.023988545 0.071541905
-0.018208036 0.025384519 0.071500793
-0.018236112 0.026780494 0.071459681
-0.018264187 0.028176466 0.071418568
-0.018292265 0.02957244 0.071377456
-0.019707635 0.03085261 0.069875523
-0.019735783 0.032252159 0.069834307
-0.01976393 0.033651706 0.069793083
-0.019792078 0.035051256 0.069751866
-0.019820226 0.036450803 0.06971065
-0.019848375 0.037850354 0.069669433
-0.019876521 0.039249901 0.069628216
-0.018516872 0.040740229 0.07104855
-0.018544948 0.042136203 0.071007438
-0.021348866 0.043364916 0.068042837
-0.021377087 0.044768039 0.068001516
-0.021405306 0.046171162 0.067960188
-0.021433525 0.047574289 0.067918867
-0.021461746 0.048977412 0.067877539
-0.021489965 0.050380535 0.067836218
-0.021518186 0.051783659 0.067794897
-0.021546405 0.053186782 0.067753568
-0.021574624 0.054589905 0.067712247
-0.022991426 0.055941571 0.066208206
-0.023019718 0.05734827 0.066166781
-0.02304801 0.058754966 0.066125348
-0.023076301 0.060161665 0.066083923
-0.023104593 0.061568365 0.06604249
-0.023132885 0.062975064 0.066001065
-0.022421446 -0.018976282 0.065385111
-0.022449845 -0.017564222 0.065343522
-0.021096271 -0.015918383 0.066761345
-0.021124598 -0.014509897 0.066719867
-0.021152925 -0.013101415 0.066678382
-0.020490155 -0.011581403 0.067366764
-0.019136142 -0.0099552236 0.068785205
-0.017782027 -0.0083361967 0.070203818
-0.017810175 -0.0069366493 0.070162602
-0.017838323 -0.0055370983 0.070121385
-0.017866472 -0.0041375505 0.070080169
-0.017894618 -0.0027380032 0.070038944
-0.017922767 -0.001338452 0.069997728
-0.017950915 6.1095496e-05 0.069956511
-0.017979063 0.001460643 0.069915295
-0.01800721 0.0028601941 0.069874078
-0.018035358 0.0042597414 0.069832854
-0.019446559 0.0054791351 0.068330646
-0.019474778 0.0068822568 0.068289325
-0.019502999 0.0082853818 0.068248004
-0.019531218 0.0096885031 0.068206675
-0.019559439 0.011091629 0.068165354
-0.019587658 0.012494754 0.068124034
-0.019615877 0.013897875 0.068082705
-0.01826054 0.015456129 0.069503106
-0.018288689 0.016855679 0.06946189
-0.018316837 0.018255228 0.069420673
-0.018344983 0.019654777 0.069379456
-0.018373132 0.021054324 0.069338232
-0.01840128 0.022453874 0.069297016
-0.018429428 0.023853423 0.069255799
-0.018457575 0.02525297 0.069214582
-0.018485723 0.026652521 0.069173366
-0.018513871 0.028052067 0.069132142
-0.01854202 0.029451616 0.069090925
-0.018570166 0.030851167 0.069049709
-0.018598314 0.032250714 0.069008492
-0.018626463 0.033650264 0.068967268
-0.018654611 0.035049811 0.068926051
-0.018682759 0.036449358 0.068884835
-0.018710906 0.037848908 0.068843618
-0.018739054 0.039248455 0.068802394
-0.018767202 0.040648006 0.068761177
-0.018795351 0.042047553 0.068719961
-0.018823497 0.043447103 0.068678744
-0.018851645 0.04484665 0.068637528
-0.018879794 0.046246201 0.068596303
-0.018907942 0.047645748 0.068555087
-0.018936088 0.049045298 0.06851387
-0.018964237 0.050444845 0.068472654
-0.018992385 0.051844396 0.06843143
-0.02040603 0.053185333 0.066925645
-0.020434251 0.054588456 0.066884324
-0.02046247 0.055991579 0.066842996
-0.020490689 0.057394702 0.066801675
-0.02051891 0.058797825 0.066760354
-0.021933028 0.060160212 0.065253891
-0.022654288 0.06154833 0.064479865
-0.022682615 0.062956817 0.06443838
-0.021273807 -0.018977739 0.064551912
-0.021302206 -0.017565679 0.064510323
-0.021330606 -0.016153619 0.064468741
-0.019979864 -0.014511351 0.065888777
-0.020008191 -0.013102868 0.065847293
-0.02003652 -0.011694382 0.065805815
-0.019375166 -0.010176156 0.066495299
-0.01664456 -0.0083376411 0.069378003
-0.016672708 -0.0069380938 0.069336787
-0.016700855 -0.0055385423 0.06929557
-0.016729003 -0.004138995 0.069254354
-0.018136874 -0.0029410529 0.06775067
-0.018165093 -0.0015379313 0.067709349
-0.019573208 -0.00032926546 0.066205293
-0.0196015 0.00107743 0.066163868
-0.019629791 0.0024841293 0.066122442
-0.019658083 0.0038908285 0.06608101
-0.019686375 0.0052975276 0.066039585
-0.019714665 0.0067042229 0.065998152
-0.019742956 0.0081109228 0.065956727
-0.019771248 0.0095176212 0.065915294
-0.01979954 0.010924321 0.065873869
-0.019827832 0.012331016 0.065832436
-0.019856123 0.013737716 0.065791011
-0.019884415 0.015144414 0.065749578
-0.019912707 0.016551115 0.065708153
-0.019940998 0.01795781 0.06566672
-0.01996929 0.01936451 0.065625295
-0.019997582 0.020771209 0.065583862
-0.018644828 0.022315169 0.067006841
-0.017291959 0.023851978 0.068429984
-0.017320108 0.025251526 0.068388768
-0.017348256 0.026651075 0.068347543
-0.017376404 0.028050622 0.068306327
-0.017404551 0.029450173 0.06826511
-0.017432699 0.030849721 0.068223894
-0.017460847 0.032249268 0.068182677
-0.017488996 0.033648819 0.068141453
-0.017517142 0.035048366 0.068100236
-0.018927027 0.036346402 0.06659361
-0.018955246 0.037749525 0.066552281
-0.018983465 0.039152648 0.06651096
-0.019011686 0.040555775 0.06646964
-0.019039905 0.041958898 0.066428311
-0.019068124 0.043362021 0.06638699
-0.019096345 0.044765145 0.066345669
-0.019124564 0.046168268 0.066304341
-0.019152783 0.047571391 0.06626302
-0.019181004 0.048974514 0.066221692
-0.019209223 0.050377637 0.066180371
-0.019237444 0.05178076 0.06613905
-0.019265663 0.053183883 0.066097721
-0.019293882 0.05458701 0.066056401
-0.020704873 0.055938669 0.064548142
-0.020733165 0.057345364 0.06450671
-0.020761456 0.058752064 0.064465284
-0.020789748 0.060158763 0.064423852
-0.02081804 0.061565459 0.064382426
-0.020846331 0.062972158 0.064340994
-0.021502228 -0.019220125 0.062255248
-0.020154567 -0.017567137 0.063677125
-0.020182967 -0.016155077 0.063635536
-0.020211367 -0.014743016 0.063593954
-0.018863458 -0.013104321 0.065016203
-0.018891787 -0.011695836 0.064974725
-0.018920114 -0.010287349 0.06493324
-0.018260177 -0.0087709092 0.065623835
-0.018288469 -0.0073642097 0.06558241
-0.018316761 -0.005957514 0.065540977
-0.019033425 -0.0046534082 0.064767316
-0.019061752 -0.003244922 0.064725831
-0.019090081 -0.0018364358 0.064684354
-0.019118408 -0.00042794956 0.064642869
-0.019146735 0.00098053669 0.064601392
-0.02055216 0.0022017136 0.063094907
-0.019203391 0.003797509 0.064518422
-0.019231718 0.0052059917 0.064476945
-0.019260045 0.0066144778 0.06443546
-0.019288372 0.008022964 0.064393982
-0.019316701 0.0094314497 0.064352497
-0.019345028 0.010839936 0.06431102
-0.019373355 0.012248423 0.064269535
-0.019401683 0.013656909 0.064228058
-0.019430012 0.015065392 0.064186573
-0.019458339 0.016473878 0.064145088
-0.019486666 0.017882364 0.064103611
-0.019514993 0.019290851 0.064062126
-0.019543322 0.020699337 0.064020649
-0.019571649 0.022107825 0.063979164
-0.018910885 0.023583155 0.064670973
-0.018939177 0.024989851 0.06462954
-0.018967468 0.02639655 0.064588115
-0.01899576 0.027803248 0.064546682
-0.017645553 0.029329337 0.065972298
-0.017673774 0.03073246 0.065930977
-0.017701993 0.032135583 0.065889657
-0.017730212 0.033538707 0.065848328
-0.017758433 0.034941833 0.065807007
-0.017786652 0.036344957 0.065765679
-0.019193802 0.037650138 0.064256683
-0.019222094 0.039056834 0.06421525
-0.019250385 0.040463533 0.064173825
-0.019278677 0.041870233 0.064132392
-0.019306969 0.043276928 0.064090967
-0.019335261 0.044683628 0.064049534
-0.019363552 0.046090327 0.064008109
-0.019391844 0.047497023 0.063966677
-0.019420134 0.048903722 0.063925251
-0.019448426 0.050310422 0.063883819
-0.019476717 0.051717121 0.063842393
-0.019505009 0.053123817 0.063800961
-0.019533301 0.054530516 0.063759536
-0.020251511 0.055911481 0.06298361
-0.020279838 0.057319965 0.062942125
-0.020308167 0.058728453 0.062900648
-0.020336494 0.060136937 0.062859163
-0.020364821 0.061545424 0.062817678
-0.020393148 0.062953912 0.0627762
-0.020351684 -0.019221587 0.061419938
-0.020380154 -0.017805953 0.061378248
-0.020408627 -0.016390318 0.061336555
-0.019063734 -0.014744474 0.062760755
-0.019092133 -0.013332414 0.062719166
-0.019120533 -0.011920353 0.062677585
-0.017775381 -0.010288803 0.06410215
-0.017803708 -0.0088803163 0.064060666
-0.017832037 -0.0074718306 0.064019188
-0.017860364 -0.0060633481 0.063977703
-0.01926253 -0.0048600482 0.062469646
-0.01929093 -0.0034479883 0.062428061
-0.019319329 -0.0020359242 0.062386472
-0.019347729 -0.00062386406 0.062344886
-0.019376127 0.00078819616 0.062303301
-0.019404527 0.0022002563 0.062261712
-0.019432927 0.0036123167 0.062220126
-0.019461326 0.0050243768 0.062178541
-0.019489726 0.0064364369 0.062136952
-0.019518126 0.0078484975 0.062095366
-0.019546524 0.0092605576 0.062053777
-0.018200295 0.010838483 0.06347993
-0.018228622 0.012246969 0.063438445
-0.018256949 0.013655455 0.06339696
-0.018285278 0.015063938 0.063355483
-0.018313605 0.016472423 0.063313998
-0.019716922 0.017732922 0.061804257
-0.019745322 0.019144982 0.061762672
-0.01977372 0.020557042 0.061721083
-0.01980212 0.021969102 0.061679497
-0.018455243 0.023514856 0.063106596
-0.018483572 0.024923341 0.063065112
-0.018511899 0.026331827 0.063023627
-0.01785248 0.027801797 0.06371665
-0.017880771 0.029208496 0.063675217
-0.017909063 0.030615194 0.063633792
-0.017937355 0.032021891 0.063592359
-0.017965646 0.033428591 0.063550934
-0.017993938 0.03483529 0.063509502
-0.01802223 0.036241986 0.063468076
-0.018738519 0.037599713 0.062691778
-0.018766847 0.0390082 0.062650293
-0.018795174 0.040416684 0.062608816
-0.018823503 0.041825172 0.062567331
-0.01885183 0.043233655 0.062525854
-0.018880157 0.044642143 0.062484369
-0.018908484 0.046050627 0.062442888
-0.018936813 0.047459114 0.062401406
-0.01896514 0.048867598 0.062359925
-0.018993467 0.050276086 0.062318444
-0.019021794 0.05168457 0.062276963
-0.019050123 0.053093057 0.062235482
-0.01907845 0.054501541 0.062193997
-0.019106777 0.055910029 0.062152516
-0.019135104 0.057318512 0.062111035
-0.019163433 0.058727 0.062069554
-0.019191761 0.060135484 0.062028073
-0.019220088 0.061543971 0.061986592
-0.019248417 0.062952459 0.061945111
-0.021941606 -0.019704932 0.057649318
-0.0205999 -0.018044781 0.059075203
-0.020628443 -0.016625572 0.059033405
-0.019286558 -0.014976145 0.060459558
-0.017944494 -0.013333871 0.061885968
-0.017972894 -0.011921811 0.061844382
-0.018001292 -0.01050975 0.061802793
-0.018029692 -0.009097686 0.061761208
-0.018058091 -0.0076856259 0.061719622
-0.018086491 -0.0062735658 0.061678033
-0.018114891 -0.0048615057 0.061636448
-0.018143291 -0.0034494456 0.061594859
-0.0195428 -0.0022354296 0.060084328
-0.019571273 -0.00081979547 0.060042635
-0.019599743 0.00059584243 0.060000945
-0.019628216 0.0020114768 0.059959251
-0.019656686 0.0034271108 0.059917558
-0.018313687 0.0050229193 0.061345339
-0.018342087 0.0064349798 0.061303753
-0.018370487 0.00784704 0.061262164
-0.018398885 0.0092591001 0.061220579
-0.018427284 0.01067116 0.061178993
-0.018455684 0.01208322 0.061137404
-0.018484084 0.013495284 0.061095819
-0.018512484 0.014907344 0.06105423
-0.018540883 0.016319405 0.061012644
-0.018569283 0.017731465 0.060971059
-0.018597681 0.019143526 0.06092947
-0.018626081 0.020555586 0.060887884
-0.018654481 0.021967646 0.060846299
-0.01868288 0.023379708 0.06080471
-0.017338844 0.024921887 0.062234025
-0.017367171 0.026330374 0.062192544
-0.017395498 0.02773886 0.062151063
-0.017423827 0.029147344 0.062109582
-0.017452154 0.030555831 0.062068101
-0.017480481 0.031964317 0.062026616
-0.017508809 0.033372801 0.061985135
-0.017537137 0.034781288 0.061943654
-0.017565465 0.036189772 0.061902173
-0.017593792 0.03759826 0.061860692
-0.017622119 0.039006744 0.061819211
-0.017650448 0.040415231 0.06177773
-0.017678775 0.041823715 0.061736248
-0.017707102 0.043232203 0.061694767
-0.017735431 0.044640686 0.061653282
-0.017763758 0.046049174 0.061611801
-0.017792085 0.047457658 0.06157032
-0.017820412 0.048866145 0.061528839
-0.017848741 0.050274629 0.061487358
-0.017877068 0.051683117 0.061445877
-0.017905395 0.053091601 0.061404396
-0.017933723 0.054500088 0.061362915
-0.017962052 0.055908572 0.06132143
-0.017990379 0.057317059 0.061279949
-0.018018706 0.058725547 0.061238468
-0.018047033 0.060134031 0.061196987
-0.018075362 0.061542518 0.061155505
-0.019478066 0.062917404 0.059640277
-0.020785248 -0.019706402 0.056809787
-0.020813864 -0.018283619 0.056767885
-0.019474998 -0.016627038 0.05819599
-0.019503541 -0.015207829 0.058154192
-0.018164484 -0.013561968 0.059582554
-0.018192956 -0.012146334 0.059540864
-0.018221427 -0.0107307 0.059499171
-0.018249899 -0.0093150651 0.059457477
-0.019646259 -0.0081117768 0.057945203
-0.019674802 -0.0066925688 0.057903409
-0.019703345 -0.005273357 0.057861611
-0.019731889 -0.0038541486 0.057819813
-0.019760432 -0.0024349366 0.057778016
-0.019788975 -0.0010157285 0.057736218
-0.019817518 0.00040348349 0.05769442
-0.019846061 0.0018226918 0.057652622
-0.019874604 0.0032419036 0.057610825
-0.018534612 0.0048412876 0.059040558
-0.018563084 0.0062569221 0.058998864
-0.018591555 0.0076725562 0.058957174
-0.018620027 0.009088194 0.058915481
-0.017279651 0.010669703 0.060345795
-0.017308051 0.012081764 0.06030421
-0.017336451 0.013493828 0.060262624
-0.01736485 0.014905888 0.060221035
-0.018762384 0.016166368 0.058707021
-0.018790854 0.017582005 0.058665328
-0.018819327 0.018997641 0.058623638
-0.018847797 0.020413276 0.058581945
-0.018876269 0.021828912 0.058540251
-0.017535247 0.023378251 0.059971515
-0.017563647 0.024790311 0.05992993
-0.017592046 0.026202371 0.059888341
-0.016250767 0.027737407 0.061319973
-0.016279094 0.029145891 0.061278492
-0.016307421 0.030554377 0.061237007
-0.016335748 0.031962864 0.061195526
-0.016364077 0.033371348 0.061154045
-0.016392404 0.034779835 0.061112564
-0.016420731 0.036188319 0.061071083
-0.016449058 0.037596807 0.061029602
-0.016477387 0.039005291 0.060988121
-0.016505715 0.040413778 0.06094664
-0.01790444 0.041735034 0.059430886
-0.01793284 0.043147098 0.059389301
-0.017961239 0.044559158 0.059347712
-0.017989639 0.045971218 0.059306126
-0.018018039 0.047383279 0.059264537
-0.018046439 0.048795339 0.059222952
-0.018074837 0.050207399 0.059181366
-0.018103236 0.051619459 0.059139777
-0.018131636 0.053031519 0.059098192
-0.018160036 0.054443583 0.059056602
-0.018188436 0.055855643 0.059015017
-0.018216835 0.057267703 0.058973432
-0.018245235 0.058679763 0.058931842
-0.018273633 0.060091823 0.058890257
-0.018302033 0.061503883 0.058848672
-0.019701939 0.062882341 0.057331182
-0.023011139 -0.02174197 0.052332748
