# .PCD v0.7 - Point Cloud Data file format
VERSION 0.7
FIELDS x y z
SIZE 4 4 4
TYPE F F F
COUNT 1 1 1
WIDTH 1344
HEIGHT 1
VIEWPOINT 0 0 0 1 0 0 0
POINTS 1344
DATA ascii
-0.022423126 0.047155779 -0.78166676
-0.017554462 0.047223605 -0.78277785
-0.012658308 0.047237407 -0.78300011
-0.0077549699 0.047223601 -0.78277785
-0.0028514327 0.047165833 -0.78183341
0.0027436025 0.047175881 -0.78200006
0.0076415366 0.04719599 -0.78233337
0.012538898 0.047195993 -0.78233337
0.01743626 0.04719599 -0.78233337
0.022323508 0.047175892 -0.78200006
0.027711509 0.047020793 -0.78154558
0.032525498 0.047304261 -0.78180003
0.037749887 0.047227055 -0.78283334
0.042671517 0.047250412 -0.78322226
0.047570221 0.047247164 -0.78316665
0.052506749 0.047276426 -0.78366667
0.057412453 0.04727643 -0.78366673
0.062344667 0.046592526 -0.78400004
0.067252457 0.046592519 -0.78399998
0.072547235 0.046483502 -0.78385717
0.077382185 0.046701547 -0.78414291
0.082676962 0.046592519 -0.78399998
0.087584756 0.046592526 -0.78400004
0.092492551 0.046592519 -0.78399998
0.097400337 0.046592526 -0.78400004
0.10191446 0.046181459 -0.78420007
0.10735269 0.045946442 -0.78500003
0.11226673 0.045946442 -0.78500003
0.1178828 0.045946442 -0.78500003
0.12279686 0.045946442 -0.78500003
0.1256049 0.045946442 -0.78500003
-0.066043228 0.050174113 -0.78500003
-0.062533192 0.050174113 -0.78500003
-0.059023153 0.050174113 -0.78500003
-0.052003074 0.050174113 -0.78500003
-0.04779103 0.050174113 -0.78500003
-0.030240836 0.050174113 -0.78500003
-0.027432805 0.050174113 -0.78500003
-0.022518748 0.050174113 -0.78500003
-0.0021605249 0.050174113 -0.78500003
0.0013495139 0.050174113 -0.78500003
0.023111753 0.050174113 -0.78500003
0.027323801 0.050174113 -0.78500003
0.032237854 0.050174113 -0.78500003
0.264651 0.27634847 -0.78100002
0.26724029 0.27825472 -0.78157157
0.27070403 0.27938625 -0.78100002
0.26865092 0.28145313 -0.78350002
0.27252087 0.28292859 -0.78245461
0.27600157 0.28389108 -0.78149998
0.27320272 0.28674105 -0.7845
0.27699906 0.28666133 -0.78300011
0.28073353 0.28619277 -0.78300005
-0.23623136 0.033810772 -0.77600002
0.23728019 0.034275126 -0.77600002
0.24213789 0.034275126 -0.77600002
-0.34078786 0.039847396 -0.77600002
-0.33731806 0.039847396 -0.77600002
-0.33262146 0.039950095 -0.77800006
-0.32844698 0.039950095 -0.77800006
-0.31719327 0.038454328 -0.77600002
-0.3130295 0.038454331 -0.77600002
-0.29290468 0.038454328 -0.77600002
-0.28943488 0.038454328 -0.77600002
-0.28044039 0.039950095 -0.77800006
-0.27695262 0.03955048 -0.77700007
-0.27243653 0.039202213 -0.77700007
-0.26722419 0.039309055 -0.77714288
-0.2628763 0.03957615 -0.77750009
-0.25748071 0.039950095 -0.77800006
-0.2526105 0.039950095 -0.77800006
-0.2474218 0.03920221 -0.77700007
-0.24209353 0.038365029 -0.77672738
-0.2377229 0.03732105 -0.77692312
-0.23279768 0.037643958 -0.77844447
-0.22785607 0.037903767 -0.77900004
-0.22272876 0.037861306 -0.77812499
-0.21773027 0.038112663 -0.77850008
-0.2139232 0.038602993 -0.77900004
-0.071531683 0.039847396 -0.77600002
-0.067367926 0.039847396 -0.77600002
-0.062510207 0.039847396 -0.77600002
-0.0576525 0.039847396 -0.77600002
-0.054182697 0.039847396 -0.77600002
-0.031282041 0.039847396 -0.77600002
-0.027812248 0.039847396 -0.77600002
-0.022260571 0.039847396 -0.77600002
-0.017402858 0.039847396 -0.77600002
-0.012545144 0.039847396 -0.77600002
-0.007687429 0.039847396 -0.77600002
-0.0049115913 0.039847396 -0.77600002
0.027704494 0.039847396 -0.77600002
0.032562207 0.039847396 -0.77600002
0.037419923 0.039847396 -0.77600002
0.040889718 0.039847396 -0.77600002
0.04852327 0.039847396 -0.77600002
0.052687027 0.039847396 -0.77600002
0.057544738 0.039847396 -0.77600002
0.06240245 0.039847396 -0.77600002
0.067260168 0.039847396 -0.77600002
0.07211788 0.039847396 -0.77600002
0.077669553 0.039847396 -0.77600002
0.082527272 0.039847396 -0.77600002
0.087997779 0.03945151 -0.77733344
0.092361569 0.039202213 -0.77700007
0.097225539 0.03920221 -0.77700007
0.10228755 0.03875348 -0.77640003
0.11306148 0.038454331 -0.77600002
0.11762438 0.039052635 -0.7768001
0.12224027 0.039202213 -0.77700001
0.12747744 0.039095372 -0.7768572
0.13228989 0.039309055 -0.77714288
0.13720357 0.039095372 -0.7768572
0.14302449 0.038952917 -0.77666676
0.14755394 0.038666975 -0.77674997
0.15231976 0.037857302 -0.77600008
0.15747488 0.038454331 -0.77600002
0.16233259 0.038454328 -0.77600002
0.16802847 0.037790831 -0.77666676
0.17259881 0.037913937 -0.77714288
0.17749768 0.037700765 -0.7768572
0.18232855 0.037913937 -0.77714288
0.18737613 0.037770182 -0.77625
0.19281262 0.036961652 -0.77654546
0.19765005 0.037240215 -0.77679998
0.20253485 0.036961649 -0.77654546
0.20738633 0.037921011 -0.77728581
0.21235083 0.037722003 -0.77728575
0.21783572 0.037591688 -0.77733338
0.22293431 0.03743691 -0.7773335
0.22758691 0.036995213 -0.77749997
0.23253784 0.036546104 -0.77771437
0.23737475 0.036326628 -0.77728575
0.24260461 0.036436364 -0.77750003
0.24747172 0.036436364 -0.77750003
0.25140682 0.036282729 -0.77720004
0.25731191 0.037547302 -0.77740002
0.26121128 0.038505081 -0.77700013
-0.34140867 0.0413999 -0.77900004
-0.33722883 0.0413999 -0.77900004
-0.33235234 0.041399904 -0.77900004
-0.32747585 0.040700674 -0.77900004
-0.32259935 0.040001445 -0.77900004
-0.31772286 0.040001445 -0.77900004
-0.31214973 0.040001445 -0.77900004
-0.30755192 0.040560827 -0.77900004
-0.30239671 0.040001445 -0.77900004
-0.28707063 0.040001445 -0.77900004
-0.28289074 0.040700674 -0.77900004
-0.27731761 0.0413999 -0.77900004
-0.27313775 0.0413999 -0.77900004
-0.25711501 0.041399904 -0.77900004
-0.25223851 0.0413999 -0.77900004
-0.24736202 0.041399904 -0.77900004
-0.24194375 0.041658334 -0.77860004
-0.23733036 0.040840518 -0.77900004
-0.23327439 0.041089132 -0.7790001
-0.2255339 0.040467598 -0.77900004
-0.22263123 0.040351056 -0.77900004
-0.21740642 0.040001445 -0.77900004
-0.2139232 0.040001445 -0.77900004
-0.071572252 0.042658743 -0.77644444
-0.067483082 0.042708382 -0.77733332
-0.062644467 0.042726897 -0.77766675
-0.057281256 0.042862028 -0.77781826
-0.052418686 0.042528268 -0.7766
-0.047283694 0.042671353 -0.77666676
-0.042440012 0.042690266 -0.77700013
-0.037582416 0.042347744 -0.777125
-0.032326009 0.042306919 -0.77728581
-0.027677642 0.042593271 -0.77754551
-0.022308383 0.042726889 -0.77766669
-0.017618397 0.042563308 -0.77787507
-0.012585559 0.042072549 -0.77850008
-0.0077121942 0.042072557 -0.77850008
-0.0028361583 0.042722315 -0.77758336
0.0027266373 0.042708583 -0.77733344
0.0075959549 0.042726893 -0.77766675
0.012464102 0.042726889 -0.77766675
0.01733225 0.042726893 -0.77766675
0.02218568 0.042699423 -0.77716678
0.027763996 0.042726897 -0.77766681
0.032641865 0.042738706 -0.77788907
0.037527747 0.042059261 -0.7782501
0.042341497 0.042001091 -0.77716672
0.047226463 0.042019404 -0.77750003
0.052806068 0.042032693 -0.77775002
0.057681285 0.042037122 -0.7778334
0.062896311 0.041968871 -0.77842867
0.067189537 0.041927394 -0.77840012
0.072303757 0.041346755 -0.77800006
0.077869736 0.041346755 -0.77800006
0.08209651 0.042072557 -0.77850008
0.087722823 0.0413999 -0.77900004
0.092599317 0.041399904 -0.77900004
0.097475804 0.0413999 -0.77900004
0.10304894 0.040001445 -0.77900004
0.1072288 0.040001445 -0.77900004
0.11280192 0.040001445 -0.77900004
0.11767843 0.040933751 -0.77900004
0.12255491 0.0413999 -0.77900004
0.12743142 0.041399904 -0.77900004
0.13230792 0.0413999 -0.77900004
0.13788104 0.041050285 -0.77900004
0.14275753 0.040933751 -0.77900004
0.14972396 0.040001445 -0.77900004
0.15251052 0.040001445 -0.77900004
0.15738702 0.040001445 -0.77900004
0.16226351 0.040001445 -0.77900004
0.2590968 0.040700674 -0.77900004
0.26188332 0.0413999 -0.77900004
-0.071714252 0.045536727 -0.77800006
-0.055785455 0.045595258 -0.77900004
-0.052302241 0.045595258 -0.77900004
-0.047425747 0.045595258 -0.77900004
0.26642644 0.26900703 -0.77600002
0.26397327 0.27354312 -0.77900004
0.26780912 0.27288094 -0.77755558
0.26768872 0.27634007 -0.77900004
0.27215487 0.2773785 -0.77750003
0.27614188 0.27945501 -0.77600002
0.27476636 0.28017527 -0.77800006
0.27728093 0.28199837 -0.77725005
0.22954592 0.029902006 -0.77100003
0.23230389 0.029902007 -0.77100009
0.2371303 0.029902006 -0.77100003
0.2426462 0.029902006 -0.77100003
0.24609365 0.029902006 -0.77100003
0.25367802 0.029902006 -0.77100003
-0.31652844 0.034054287 -0.77100009
-0.31239152 0.034054287 -0.77100009
-0.30756509 0.034054283 -0.77100003
-0.3027387 0.034054287 -0.77100009
-0.29929125 0.034054283 -0.77100003
-0.25723252 0.034054287 -0.77100009
-0.2521106 0.033461101 -0.77100003
-0.24708885 0.033041798 -0.77162498
-0.24250099 0.032965194 -0.77200001
-0.23816046 0.033492051 -0.77400005
0.088200912 0.034054283 -0.77100003
0.092337847 0.034054283 -0.77100003
0.097853743 0.034054283 -0.77100003
0.10819606 0.034054287 -0.77100009
0.11275103 0.033730343 -0.77149999
0.11723538 0.033384319 -0.77149999
0.12275486 0.033384319 -0.77149993
0.1275844 0.033384319 -0.77149999
0.13241395 0.033384319 -0.77149999
0.13762479 0.033282302 -0.77142864
0.1423817 0.033486336 -0.77157146
0.14768818 0.032990817 -0.77200001
0.15242207 0.033384319 -0.77150005
0.15717484 0.033367757 -0.77112496
0.16220595 0.033592917 -0.77100003
0.16771016 0.033406105 -0.77200007
0.17210411 0.032886978 -0.77244455
0.1774572 0.032729931 -0.77236366
0.18258908 0.032875013 -0.77281827
0.18762951 0.03260361 -0.77236366
0.19226845 0.033050779 -0.77266675
0.19765139 0.033449672 -0.773
0.20277776 0.03259591 -0.77218187
0.2076091 0.032874312 -0.77249998
0.21244432 0.03333227 -0.7725715
0.21759167 0.03343378 -0.77262509
0.22297794 0.033050779 -0.77266675
0.22759412 0.03260931 -0.77280003
0.23254003 0.032901492 -0.77345461
0.23757236 0.032235682 -0.773
0.24248976 0.032419506 -0.77325004
0.24750309 0.032766875 -0.7732501
0.25253853 0.032617781 -0.77300012
0.25720626 0.032965194 -0.77200001
0.26137474 0.034069009 -0.7713334
-0.34292766 0.038305663 -0.773
-0.33766347 0.037949558 -0.77140003
-0.33250007 0.037118774 -0.77233332
-0.3274211 0.036886174 -0.77230006
-0.32243928 0.036895901 -0.77250004
-0.31765595 0.036611006 -0.77300006
-0.31251061 0.036225043 -0.77300006
-0.30734921 0.037066992 -0.77345467
-0.30249581 0.036790028 -0.77320004
-0.29763079 0.037062809 -0.77336377
-0.29241496 0.036219291 -0.77287507
-0.28712764 0.036616113 -0.7731111
-0.28247261 0.037053771 -0.77290004
-0.27746382 0.036754549 -0.77218181
-0.27261138 0.036311161 -0.77271444
-0.26740322 0.036202058 -0.77249998
-0.26234913 0.036740348 -0.77287507
-0.25775158 0.036931276 -0.7732501
-0.252711 0.036790024 -0.77320004
-0.24793845 0.036482155 -0.77355558
-0.24335174 0.035923634 -0.77400005
-0.072789222 0.038034584 -0.77216673
-0.067754462 0.036895894 -0.77250004
-0.062228724 0.036895897 -0.77250004
-0.057363968 0.036876932 -0.77211118
-0.052522045 0.037564661 -0.77200001
-0.047443986 0.038421452 -0.77249998
-0.042945743 0.038422707 -0.77222228
-0.037358418 0.038975623 -0.77249998
-0.032794911 0.038831722 -0.77240008
-0.027650965 0.037539288 -0.77149999
-0.022134734 0.037545256 -0.77162498
-0.017327508 0.037596203 -0.77266669
-0.012496644 0.037612721 -0.77300006
-0.0076577095 0.037612721 -0.77300012
-0.002628743 0.038154118 -0.77245462
0.0027090989 0.03827443 -0.77233332
0.0075438609 0.038274426 -0.77233338
0.012378624 0.038274426 -0.77233332
0.017711779 0.038140766 -0.77218187
0.022466866 0.038421452 -0.77249998
0.027562581 0.037564065 -0.77200001
0.032415345 0.037588842 -0.77250004
0.03722614 0.037564065 -0.77200007
0.042948935 0.038140766 -0.77218187
0.047561627 0.037317466 -0.77166665
0.052370176 0.036838986 -0.77133334
0.057374138 0.03718707 -0.771375
0.062400669 0.037676834 -0.77228582
0.06763304 0.036887944 -0.77233338
0.072467797 0.036887936 -0.77233338
0.07730256 0.036887944 -0.77233338
0.082442373 0.036761731 -0.77260005
0.087007195 0.036780715 -0.77333343
0.092577368 0.036225043 -0.773
0.097416304 0.036225043 -0.773
0.10225524 0.036225036 -0.77300006
0.10739803 0.036790024 -0.77320009
0.11204194 0.036606878 -0.77375007
0.11761528 0.036271006 -0.77400011
0.12246047 0.036271006 -0.77400011
0.12730566 0.036271002 -0.77400011
0.13284303 0.036271006 -0.77400011
0.13768823 0.036271006 -0.77400011
0.14253342 0.036271006 -0.77400011
0.14703253 0.035923634 -0.77400005
0.15263912 0.035854161 -0.77400011
0.15770955 0.03625951 -0.77375007
0.16239628 0.036225043 -0.77300012
0.16703628 0.035854165 -0.77400011
0.17229676 0.035576265 -0.77400005
0.17714196 0.035576265 -0.77400005
0.18267933 0.035576265 -0.77400005
0.18752453 0.035576265 -0.77400005
0.20759746 0.035576265 -0.77400005
0.21244267 0.035576265 -0.77400005
0.21659569 0.035576265 -0.77400005
0.22074871 0.035576265 -0.77400005
0.25812593 0.035576265 -0.77400005
0.26159945 0.03548434 -0.77200001
-0.074116006 0.041134175 -0.77400005
-0.039507467 0.041134175 -0.77400005
0.26677829 0.2638135 -0.77100003
0.26736975 0.26776844 -0.77157146
0.26850849 0.27109265 -0.77400005
0.27223721 0.27275389 -0.77280009
0.27615532 0.27377895 -0.77100003
0.27427658 0.27641898 -0.77400005
0.27712959 0.27758655 -0.77166665
0.27886081 0.28078631 -0.77200001
-0.34735653 0.029020529 -0.76600003
-0.33502623 0.029708087 -0.76600003
-0.33228618 0.029708087 -0.76600003
-0.32749104 0.029708087 -0.76600003
-0.32222068 0.02926911 -0.7665
-0.31778473 0.028938934 -0.76642859
-0.31262463 0.029039925 -0.7665
-0.30746314 0.029140919 -0.76657146
-0.30270594 0.028938934 -0.76642859
-0.29749623 0.029035076 -0.76637495
-0.29255521 0.029708087 -0.76600003
-0.28776011 0.029708087 -0.76600003
-0.28227997 0.029708087 -0.76600003
-0.27748486 0.029708087 -0.76600003
-0.27268973 0.029708087 -0.76600003
-0.26720962 0.029020533 -0.76600003
-0.26166025 0.029440824 -0.76620001
-0.2573424 0.02834831 -0.76640004
-0.25248826 0.027685387 -0.76706254
-0.24808359 0.029364271 -0.76900005
0.044472888 0.029708087 -0.76600003
0.047897972 0.029708087 -0.76600003
0.052693091 0.029708087 -0.76600003
0.057488203 0.029708087 -0.76600003
0.062283318 0.029708087 -0.76600003
0.067078434 0.029708087 -0.76600003
0.072558567 0.029708087 -0.76600003
0.077353679 0.029708087 -0.76600003
0.082148798 0.029708087 -0.76600003
0.088085607 0.029249718 -0.76600003
0.09248437 0.029039925 -0.7665
0.097282611 0.029039925 -0.7665
0.10276633 0.029039925 -0.7665
0.10756457 0.029039923 -0.7665
0.11236282 0.029039923 -0.76650006
0.11755713 0.028623512 -0.76639998
0.12267203 0.028358633 -0.76666665
0.12758157 0.028384089 -0.76733327
0.13256702 0.028225947 -0.76680005
0.137446 0.028523337 -0.76772738
0.1425129 0.028262744 -0.76745468
0.14748648 0.028385371 -0.76736367
0.15241739 0.029097199 -0.76800001
0.15787283 0.028540986 -0.76744449
0.16225335 0.02851261 -0.76709998
0.16738169 0.028384086 -0.76733339
0.17264967 0.028253147 -0.76718187
0.17748465 0.028535161 -0.76770008
0.1825473 0.027706416 -0.76762503
0.18778142 0.02755042 -0.76713336
0.19243735 0.02851261 -0.76710004
0.19720834 0.028231993 -0.76663637
0.20249642 0.027856538 -0.76738471
0.20731881 0.027833203 -0.76733339
0.21244051 0.027664362 -0.7665
0.21765046 0.027470745 -0.76657158
0.22257908 0.027893215 -0.76735723
0.22739057 0.027323838 -0.7673077
0.23257974 0.027007805 -0.76736367
0.23759931 0.027136015 -0.76745462
0.24262914 0.026875909 -0.76718187
0.24774398 0.027606087 -0.76757151
0.25232318 0.027261516 -0.76745462
0.25759733 0.027850572 -0.76738894
0.26162127 0.028027531 -0.76700002
-0.34720215 0.031569228 -0.76666677
-0.34105441 0.032733344 -0.76600003
-0.33733779 0.032483637 -0.76658338
-0.33253503 0.032657668 -0.76772738
-0.32757172 0.032558393 -0.76833344
-0.32252318 0.032414932 -0.7682001
-0.31802928 0.032405004 -0.76833332
-0.3122884 0.03178243 -0.76811111
-0.30745494 0.03189519 -0.76900005
-0.30293581 0.031993799 -0.76900011
-0.29724365 0.032233179 -0.7678889
-0.29227152 0.032399613 -0.76754552
-0.2874746 0.032673724 -0.76780003
-0.28272846 0.032407317 -0.76772738
-0.27746278 0.032537207 -0.76783341
-0.27236882 0.032673724 -0.76780003
-0.26756117 0.032399613 -0.76754552
-0.26241225 0.032544266 -0.76800013
-0.25733271 0.032107241 -0.76855564
-0.25278288 0.031550065 -0.76900005
-0.24762511 0.031204939 -0.76900005
-0.071220785 0.03253014 -0.7676667
-0.067301743 0.032516614 -0.76733339
-0.062507525 0.032521121 -0.76744449
-0.057694819 0.032516614 -0.76733327
-0.052205145 0.032516614 -0.76733345
-0.047401685 0.032516617 -0.76733333
-0.042570911 0.03249453 -0.76683342
-0.037609499 0.032792952 -0.76666671
-0.032658439 0.033066589 -0.76642865
-0.02747176 0.033167966 -0.76650006
-0.022702202 0.033211537 -0.7675001
-0.017910253 0.033233318 -0.76800007
-0.012412441 0.033222277 -0.76775002
-0.0076009762 0.033203878 -0.76733339
-0.0025713921 0.032994416 -0.76777786
0.0028788082 0.032646924 -0.76745462
0.0074950219 0.032516614 -0.76733333
0.012292545 0.032501891 -0.76700008
0.017777011 0.03249453 -0.76683331
0.022584677 0.032506797 -0.76711112
0.027371278 0.032487169 -0.76666677
0.032856181 0.032487169 -0.76666677
0.037655465 0.032487169 -0.76666671
0.042501204 0.032523379 -0.76750004
0.047315679 0.03253014 -0.7676667
0.052154731 0.032551326 -0.76816672
0.057613283 0.032530144 -0.76766676
0.062418833 0.032530144 -0.7676667
0.067224383 0.032530144 -0.76766676
0.072779588 0.032558393 -0.76833338
0.077589311 0.032558393 -0.76833344
0.082399026 0.032558389 -0.76833338
0.087341949 0.032027178 -0.76800007
0.092289619 0.03195902 -0.76814294
0.097472996 0.031854615 -0.76800007
0.10258162 0.032414928 -0.7682001
0.10719307 0.032230172 -0.76875007
0.11227082 0.031665109 -0.76900005
0.11754319 0.031204939 -0.76900005
0.12235709 0.031204939 -0.76900005
0.12785868 0.031204939 -0.76900005
0.13267258 0.031204939 -0.76900005
0.13748646 0.031204939 -0.76900005
0.14230037 0.031204939 -0.76900005
0.14711426 0.031204939 -0.76900005
0.15261585 0.031204939 -0.76900005
0.15742975 0.031204939 -0.76900005
0.16270211 0.031665109 -0.76900005
0.16705754 0.031204939 -0.76900005
0.17324683 0.031204939 -0.76900005
0.19387782 0.031204939 -0.76900005
0.19731632 0.031204939 -0.76900005
0.20969489 0.031204939 -0.76900005
0.21244571 0.031204939 -0.76900005
0.21725959 0.031204939 -0.76900005
0.22069809 0.031204939 -0.76900005
0.25783384 0.031204939 -0.76900005
0.26127237 0.03189519 -0.76900005
-0.34108514 0.036236137 -0.76833338
-0.33772877 0.035898693 -0.76814288
-0.33427525 0.035346445 -0.76900005
-0.075012617 0.036726944 -0.76900005
-0.072556898 0.036357045 -0.76850003
-0.05094314 0.035346445 -0.76900005
-0.047504645 0.035346445 -0.76900005
-0.042232286 0.035806611 -0.76900005
-0.037165865 0.036013711 -0.76850009
-0.032346595 0.036006056 -0.76833338
-0.027561363 0.035346445 -0.76900005
-0.022747468 0.035346445 -0.76900005
-0.017933574 0.035346445 -0.76900005
-0.012431978 0.035346445 -0.76900005
-0.0076180836 0.035346445 -0.76900005
-0.0028041878 0.035346445 -0.76900005
0.0026974066 0.035346445 -0.76900005
0.0075113019 0.035346445 -0.76900005
0.012325196 0.035346445 -0.76900005
0.017826792 0.035346445 -0.76900005
0.022640686 0.035346445 -0.76900005
0.027454581 0.035346445 -0.76900005
0.032268476 0.035346445 -0.76900005
0.03708237 0.035346445 -0.76900005
0.042583965 0.035346445 -0.76900005
0.046022464 0.035346445 -0.76900005
0.058401048 0.035346445 -0.76900005
0.062527254 0.035346445 -0.76900005
0.26778826 0.25866485 -0.76600003
0.26770616 0.26270416 -0.76674998
0.27173376 0.26364976 -0.7665
0.26869118 0.26602671 -0.76780003
0.27280578 0.26712838 -0.76740009
0.27677667 0.26766786 -0.76750004
0.27365094 0.27003166 -0.76900005
0.27815914 0.2721945 -0.76842868
0.27938178 0.27739435 -0.76900005
0.20860003 0.01992498 -0.76000011
0.21267796 0.01992498 -0.76000011
0.21743549 0.019924978 -0.76000005
0.2228727 0.019924978 -0.76000005
0.22763026 0.01992498 -0.76000011
0.23238781 0.019924978 -0.76000005
0.23782502 0.019924978 -0.76000005
0.24258259 0.01992498 -0.76000011
0.24734013 0.019924978 -0.76000005
0.25306863 0.01934026 -0.76000011
0.25753492 0.019242804 -0.76000011
0.26025349 0.019924978 -0.76000005
-0.34168735 0.024049614 -0.76100004
-0.33715957 0.02401801 -0.76000005
-0.33240205 0.02401801 -0.76000011
-0.32628515 0.02401801 -0.76000005
-0.32191598 0.023433292 -0.76000011
-0.31772876 0.023356907 -0.76066673
-0.31278926 0.023433292 -0.76000011
-0.30725494 0.02401801 -0.76000005
-0.30249739 0.02401801 -0.76000011
-0.2977398 0.02401801 -0.76000005
-0.29230261 0.02401801 -0.76000005
-0.28754506 0.02401801 -0.76000011
-0.28346717 0.02401801 -0.76000011
-0.27667066 0.02401801 -0.76000011
-0.27261326 0.023469411 -0.76114291
-0.26730877 0.023112098 -0.76160008
-0.2623187 0.022862814 -0.76125008
-0.25797242 0.024112817 -0.76300001
-0.25489706 0.02414442 -0.76400006
0.0543193 0.02401801 -0.76000005
0.056358252 0.02401801 -0.76000005
0.062475111 0.02401801 -0.76000005
0.067912318 0.02401801 -0.76000005
0.072669879 0.02401801 -0.76000011
0.077427432 0.02401801 -0.76000005
0.082864635 0.02401801 -0.76000005
0.087622188 0.02401801 -0.76000011
0.09241081 0.02334374 -0.76025009
0.097635232 0.023265475 -0.76085722
0.10233936 0.023469411 -0.76114297
0.10740178 0.02335164 -0.76050007
0.11294311 0.022826329 -0.76066679
0.1172104 0.022984946 -0.76088893
0.12244529 0.023367442 -0.76100004
0.12757359 0.023265475 -0.76085722
0.13228898 0.023469409 -0.76114297
0.13741727 0.023367442 -0.76100004
0.14281404 0.023359541 -0.76075011
0.14743146 0.023335841 -0.76000011
0.15218903 0.023335839 -0.76000011
0.15756047 0.022839561 -0.76050013
0.16219898 0.022822356 -0.76145458
0.16743457 0.022694608 -0.76133341
0.17255735 0.022552293 -0.76072741
0.17725019 0.022815382 -0.76080006
0.18225336 0.022674736 -0.76066679
0.18736929 0.022548115 -0.7610001
0.19216084 0.02282236 -0.76145458
0.19734889 0.022689637 -0.76116675
0.20244749 0.022560397 -0.76140004
0.20743893 0.02285553 -0.76254541
0.212522 0.022606159 -0.76254553
0.21737683 0.022720985 -0.76218182
0.22240326 0.022699874 -0.76150006
0.22754677 0.022715434 -0.76200002
0.23231663 0.022715895 -0.76200002
0.23754111 0.022715673 -0.76200008
0.24253845 0.022715436 -0.76200002
0.2473083 0.022715895 -0.76200002
0.25244614 0.02285553 -0.76254553
0.25764295 0.022724412 -0.76233339
0.26076454 0.022669468 -0.76050007
-0.34508318 0.028259 -0.76400012
-0.34216845 0.027532775 -0.76283336
-0.33736435 0.027504127 -0.76200002
-0.33240736 0.027040705 -0.76183337
-0.32745159 0.026570331 -0.76200008
-0.322786 0.026712816 -0.76333338
-0.31733721 0.026168313 -0.76300001
-0.31221044 0.026065577 -0.7628572
-0.30738208 0.026133118 -0.76200002
-0.30261195 0.02613312 -0.76200002
-0.29715869 0.026134018 -0.76200002
-0.29227638 0.026849564 -0.76288891
-0.28757077 0.026706832 -0.76236361
-0.28223035 0.027356254 -0.76230776
-0.27752948 0.026831845 -0.76236373
-0.27263746 0.026712906 -0.76254553
-0.26779446 0.026400613 -0.76311111
-0.26241073 0.026712816 -0.76333338
-0.25831351 0.025776893 -0.76359999
-0.25489706 0.025515946 -0.76400006
-0.070876509 0.028510306 -0.76150006
-0.067456029 0.027479684 -0.76133341
-0.062745333 0.028187415 -0.76200008
-0.057269346 0.028174488 -0.76166672
-0.052477784 0.028161559 -0.76133341
-0.047711879 0.028161561 -0.76133341
-0.042284235 0.028174486 -0.76166677
-0.037482817 0.027466755 -0.7610001
-0.032857802 0.027605718 -0.76106679
-0.02726911 0.028143063 -0.76083344
-0.022500962 0.0281369 -0.76066673
-0.017739236 0.0281369 -0.76066679
-0.012297258 0.028136902 -0.76066679
-0.0075355298 0.0281369 -0.76066673
-0.0027738004 0.0281369 -0.76066679
0.0028274204 0.027942361 -0.76107705
0.0074380445 0.027486149 -0.76150012
0.012204989 0.027486145 -0.76150012
0.017652927 0.027486145 -0.76150006
0.022434592 0.027503744 -0.76200008
0.027204668 0.027503742 -0.76200002
0.032656185 0.027503746 -0.76200002
0.037426263 0.027503747 -0.76200002
0.042052306 0.027361959 -0.76186681
0.047617033 0.026800986 -0.76150012
0.05243361 0.026826899 -0.76222229
0.057174455 0.026812717 -0.76183343
0.06263952 0.026819481 -0.76200008
0.067663766 0.026675766 -0.76180011
0.072417356 0.026962271 -0.76254553
0.077647723 0.026825046 -0.76216668
0.082651496 0.026675766 -0.76180005
0.087145664 0.026681531 -0.76244444
0.092744403 0.026168313 -0.76300007
0.097520739 0.026168313 -0.76300001
0.10229707 0.026168313 -0.76300001
0.10775574 0.026168313 -0.76300001
0.11253208 0.026168313 -0.76300001
0.11771265 0.025928592 -0.7626667
0.12276886 0.025482548 -0.76300001
0.12771058 0.025515947 -0.76400012
0.13249317 0.025515946 -0.76400006
0.13727579 0.025515947 -0.76400012
0.14205836 0.025515946 -0.76400006
0.147138 0.025449151 -0.76200002
0.15246835 0.026065577 -0.7628572
0.15678823 0.02603784 -0.76319999
0.1625552 0.025515946 -0.76400006
0.16733781 0.025515947 -0.76400012
0.17212039 0.025515946 -0.76400006
0.17690299 0.025515947 -0.76400012
0.19261724 0.025515946 -0.76400006
0.19739982 0.025515947 -0.76400012
0.20013274 0.025515946 -0.76400006
0.26094002 0.025515946 -0.76400006
-0.34576637 0.033059336 -0.76400006
-0.34280807 0.032351486 -0.76350003
-0.070425518 0.031002048 -0.76400006
-0.036264122 0.031002048 -0.76400006
-0.032847982 0.031002048 -0.76400006
-0.02738216 0.031002048 -0.76400006
-0.022599567 0.03100205 -0.76400012
-0.017816968 0.031002048 -0.76400006
-0.012351146 0.031002048 -0.76400006
-0.0075685508 0.03100205 -0.76400012
-0.0034691831 0.03100205 -0.76400012
0.00063018437 0.031002048 -0.76400006
-0.34531289 0.035756424 -0.76300001
-0.34349835 0.035024695 -0.76200002
0.26840931 0.25391006 -0.76000005
0.26866019 0.25685877 -0.76200008
0.27182105 0.2583918 -0.76085722
0.27520582 0.25868529 -0.76000005
0.2693665 0.26141828 -0.76400012
0.27292442 0.26181048 -0.76285726
0.2763381 0.26184613 -0.76125002
0.18157086 0.014372418 -0.75500005
0.23288448 0.014372417 -0.75500005
0.2382859 0.014372418 -0.75500005
0.24233699 0.014372418 -0.75500005
0.24706323 0.014372417 -0.75500005
0.25246471 0.013694733 -0.75500005
0.2577709 0.013802422 -0.75557154
-0.34236836 0.018438524 -0.75500005
-0.33831733 0.019793894 -0.75500005
-0.3322407 0.019793892 -0.75500005
-0.32751447 0.019793894 -0.75500005
-0.32278821 0.019793892 -0.75500005
-0.3170974 0.019213019 -0.75500005
-0.31266052 0.01911621 -0.75500005
-0.30793422 0.019116208 -0.75500005
-0.30293792 0.019522818 -0.75500005
-0.29713136 0.019793892 -0.75500005
-0.29105476 0.019793892 -0.75500005
-0.28767887 0.019793892 -0.75500005
-0.28227741 0.019793892 -0.75500005
-0.27755117 0.019793894 -0.75500005
-0.27282491 0.019793892 -0.75500005
-0.26702809 0.019814866 -0.75580007
-0.2627058 0.019142425 -0.7560001
-0.067570359 0.019793892 -0.75500005
0.039783165 0.019793892 -0.75500005
0.042483881 0.019793894 -0.75500005
0.047210142 0.019793892 -0.75500005
0.062739268 0.019793894 -0.75500005
0.067465521 0.019793892 -0.75500005
0.072866954 0.019793892 -0.75500005
0.077593222 0.019793894 -0.75500005
0.082608834 0.019213021 -0.75500005
0.088126019 0.019522818 -0.75500005
0.092529386 0.019133687 -0.75566667
0.097546451 0.01873057 -0.75580007
0.10266542 0.018456001 -0.75566673
0.10739587 0.018456001 -0.75566673
0.11222641 0.01847288 -0.75633335
0.11752649 0.018361669 -0.75681818
0.12262103 0.01847725 -0.75650001
0.12725577 0.018763021 -0.75588894
0.13221343 0.018913615 -0.75588894
0.13755038 0.01904187 -0.75585723
0.14229056 0.018595032 -0.75580001
0.1471056 0.017910358 -0.75553346
0.15274055 0.018076723 -0.7560001
0.15770146 0.01832396 -0.75580007
0.16264291 0.018617634 -0.75718188
0.16764788 0.017916285 -0.75666666
0.1725139 0.017869083 -0.75753337
0.17757265 0.017959202 -0.75753337
0.18252833 0.017668352 -0.75673342
0.18751462 0.017753392 -0.75646669
0.19231889 0.018376812 -0.75699997
0.19734158 0.018357228 -0.75663638
0.20226268 0.018481096 -0.75663638
0.20756413 0.017322283 -0.75623083
0.21273987 0.017130801 -0.75700009
0.21747863 0.017130803 -0.75700009
0.22266863 0.017131019 -0.75700009
0.2274076 0.017130563 -0.75700009
0.23237193 0.017130803 -0.75700009
0.23756191 0.017131019 -0.75700009
0.24254431 0.01725835 -0.75718182
0.24763821 0.017016575 -0.75800002
0.25219458 0.0168174 -0.75825
0.2580083 0.016603645 -0.75779992
0.26186341 0.017805874 -0.75680006
-0.34124228 0.021928577 -0.75850004
-0.33733019 0.021895897 -0.7573334
-0.33270419 0.021781232 -0.75671446
-0.32765427 0.022436105 -0.75719994
-0.3228223 0.02142304 -0.75666678
-0.31810868 0.021242633 -0.75833338
-0.31256983 0.021489 -0.75740004
-0.30745322 0.021813245 -0.7578572
-0.30272636 0.022015898 -0.75814289
-0.29723972 0.021886557 -0.75700009
-0.29275855 0.021905234 -0.75766671
-0.28776217 0.021886559 -0.75700009
-0.28262615 0.022077886 -0.75775003
-0.27792853 0.022131527 -0.75766671
-0.27303103 0.021511409 -0.75820005
-0.26816154 0.02126131 -0.75900006
-0.26408899 0.021261308 -0.75900006
-0.071878426 0.022741057 -0.75533342
-0.067718633 0.022556406 -0.75666678
-0.062428415 0.022656249 -0.75590914
-0.057442673 0.023182316 -0.75500005
-0.052716415 0.023859998 -0.75500005
-0.047314979 0.023859998 -0.75500005
-0.042645134 0.023213916 -0.75600004
-0.037912615 0.023213916 -0.75600004
-0.032525972 0.022551436 -0.75650001
-0.027358338 0.022800986 -0.75580007
-0.022333339 0.023182316 -0.75500005
-0.01761785 0.023198115 -0.75550008
-0.01194851 0.022800986 -0.75580007
-0.0074859965 0.022525698 -0.75566673
-0.0030261257 0.022800986 -0.75580001
0.0026533543 0.023221817 -0.75625002
0.0073940903 0.023245519 -0.75700015
0.012122182 0.022546768 -0.75633335
0.017524831 0.022536233 -0.75600016
0.022773724 0.022437571 -0.75681818
0.027438944 0.022708615 -0.75720006
0.032441907 0.022566639 -0.75699997
0.037857648 0.022566639 -0.75700009
0.042596426 0.022566639 -0.75700009
0.047335204 0.022566639 -0.75699997
0.05245157 0.022282686 -0.75660002
0.057640422 0.022389168 -0.75675005
0.062228497 0.021886559 -0.75700009
0.067689806 0.021900566 -0.75750005
0.072478637 0.021914572 -0.75800008
0.077223659 0.021914568 -0.75800002
0.082646564 0.02191457 -0.75800002
0.087391607 0.021914572 -0.75800008
0.092258193 0.021261308 -0.75900006
0.097688243 0.021261308 -0.75900006
0.10243955 0.02126131 -0.75900006
0.10719083 0.021261308 -0.75900006
0.11126337 0.021261308 -0.75900006
0.1187297 0.021261308 -0.75900006
0.12212348 0.021261308 -0.75900006
0.12755354 0.021261308 -0.75900006
0.13230483 0.02126131 -0.75900006
0.13705613 0.021261308 -0.75900006
0.14248618 0.021261308 -0.75900006
0.14791623 0.021261308 -0.75900006
0.15266752 0.02126131 -0.75900006
0.15606132 0.021261308 -0.75900006
0.26194733 0.021261308 -0.75900006
-0.071228161 0.025996834 -0.75800002
-0.069964625 0.025348958 -0.75900006
-0.062498301 0.025348958 -0.75900006
-0.057747006 0.025348958 -0.75900006
-0.052856058 0.025282161 -0.75700003
-0.047470305 0.02529886 -0.75750005
-0.0421356 0.025348958 -0.75900006
-0.030596741 0.025348958 -0.75900006
-0.027202958 0.025348958 -0.75900006
-0.022451662 0.025348958 -0.75900006
-0.017700367 0.025348958 -0.75900006
-0.012270315 0.025348958 -0.75900006
-0.0075190179 0.025348958 -0.75900006
-0.0027677226 0.025348958 -0.75900006
0.0019835732 0.025348958 -0.75900006
0.26709354 0.24839938 -0.75500005
0.26869154 0.251555 -0.75633347
0.27260253 0.25332153 -0.75580007
0.27609596 0.25427264 -0.75500005
0.27280742 0.25630108 -0.75900006
0.27640882 0.25698516 -0.75660008
-0.34010103 0.014277236 -0.75000006
-0.3374182 0.014277236 -0.75000006
-0.32668692 0.014277237 -0.75000012
-0.32220525 0.014286754 -0.75050008
-0.31786224 0.014302618 -0.75133342
-0.31260201 0.014277236 -0.75000006
-0.30723634 0.014277236 -0.75000006
-0.3025414 0.014277237 -0.75000012
-0.29851717 0.014277237 -0.75000012
-0.2864444 0.014277237 -0.75000012
-0.28242016 0.014277237 -0.75000012
-0.27772519 0.014277236 -0.75000006
-0.071624324 0.013968294 -0.75150007
-0.067562178 0.014015572 -0.75040007
0.039519705 0.014277236 -0.75000006
0.042873241 0.014277236 -0.75000006
0.047568202 0.014277237 -0.75000012
0.050921738 0.014277236 -0.75000006
0.079091474 0.014277236 -0.75000006
0.082445018 0.014277237 -0.75000012
0.087139979 0.014277236 -0.75000006
0.092505641 0.014277236 -0.75000006
0.097288191 0.014289927 -0.75066674
0.10252383 0.01385382 -0.75133342
0.10740423 0.013623075 -0.75100005
0.11277705 0.013623075 -0.75100005
0.1176347 0.013642112 -0.75200003
0.12230083 0.013637353 -0.75175005
0.1275523 0.013623076 -0.75099999
0.13261163 0.013524185 -0.75085717
0.13755028 0.013463845 -0.75150001
0.14251706 0.012967719 -0.75200003
0.14777665 0.013560207 -0.75285727
0.15245114 0.013758499 -0.75314295
0.15741569 0.013649834 -0.75250006
0.16258289 0.013631695 -0.75150001
0.16754845 0.013653006 -0.75266665
0.1723358 0.013659352 -0.75300002
0.1774002 0.013560207 -0.75285727
0.183099 0.013242937 -0.7524001
0.1874741 0.013758499 -0.75314295
0.19247335 0.013655042 -0.7527501
0.19759813 0.013560207 -0.75285727
0.20229152 0.013758499 -0.75314289
0.20762748 0.013676593 -0.75400007
0.21234749 0.013676594 -0.75400007
0.21706748 0.013676593 -0.75400007
0.22246175 0.013676593 -0.75400007
0.22770928 0.013106008 -0.75290918
0.23232576 0.012671552 -0.75222224
0.23710796 0.012521154 -0.75222236
0.24271728 0.012292128 -0.75200009
0.24715357 0.012433664 -0.75240004
0.2572881 0.012056235 -0.75133342
0.260896 0.013676593 -0.75400001
-0.3414638 0.016781479 -0.7536
-0.33742008 0.017414207 -0.75327277
-0.33256897 0.016894836 -0.75200003
-0.32784027 0.01704317 -0.75316668
-0.32252395 0.017046642 -0.75333333
-0.3177242 0.016532106 -0.75300002
-0.31250563 0.016362909 -0.75300008
-0.30746499 0.01646257 -0.75314289
-0.30214587 0.016922329 -0.75327283
-0.29742175 0.017037382 -0.75288898
-0.29266325 0.017444411 -0.75246161
-0.28744167 0.017031407 -0.75261551
-0.282547 0.016908506 -0.75319999
-0.27761215 0.017046642 -0.75333333
-0.27265078 0.017183384 -0.75340009
-0.26812953 0.017191922 -0.75225008
-0.26285705 0.017546218 -0.75160009
-0.072088845 0.017711516 -0.75283331
-0.06739226 0.017039396 -0.75300002
-0.062523633 0.018042665 -0.75250018
-0.057554722 0.017679645 -0.75142866
-0.052484266 0.018358912 -0.75166672
-0.047275707 0.018475644 -0.75145453
-0.042676497 0.018227888 -0.7518
-0.037712023 0.01836765 -0.75200003
-0.032332048 0.018367652 -0.75200003
-0.027281249 0.019166639 -0.75314295
-0.022654239 0.018966293 -0.75285715
-0.017358443 0.01849471 -0.75218195
-0.01215715 0.018367652 -0.75200003
-0.0074496735 0.01836765 -0.75200003
-0.0027421969 0.01836765 -0.75200003
0.0026377761 0.018367652 -0.75200003
0.0073452517 0.01836765 -0.75200009
0.012052729 0.018367652 -0.75200003
0.017432701 0.018367652 -0.75200003
0.022812672 0.01836765 -0.75200003
0.027528681 0.018372679 -0.75222236
0.032244027 0.017702116 -0.75237495
0.037513588 0.017576242 -0.75279999
0.042364694 0.017036583 -0.75288892
0.047074806 0.017035324 -0.75283331
0.052437369 0.01770517 -0.7525
0.05782092 0.01770517 -0.75249994
0.062489979 0.017017668 -0.75200009
0.067257918 0.017032454 -0.75266671
0.072706103 0.017046638 -0.75333345
0.07767722 0.016908506 -0.75319999
0.082183398 0.016716925 -0.75375003
0.087336324 0.016922325 -0.75327277
0.092569061 0.01626325 -0.75285727
0.096858732 0.016240051 -0.7536
0.10243899 0.015706953 -0.75400001
0.10783327 0.015706953 -0.75400001
0.11255327 0.015706953 -0.75400007
0.11727326 0.015706953 -0.75400001
0.12266755 0.015706953 -0.75400001
0.12772471 0.016045347 -0.75400001
0.13239655 0.016287057 -0.75400007
0.13750182 0.016383741 -0.75400007
0.14222182 0.015706953 -0.75400007
0.14896467 0.015706953 -0.75400001
0.15233609 0.015706953 -0.75400001
0.15773037 0.015706953 -0.75400001
0.16245037 0.015706953 -0.75400007
0.16582179 0.015706953 -0.75400001
0.1934675 0.015706953 -0.75400007
0.19751321 0.015706953 -0.75400007
0.2022332 0.015706953 -0.75400001
-0.073549435 0.021572439 -0.75400007
-0.060063727 0.021121247 -0.75400001
-0.057366591 0.021121247 -0.75400007
-0.052646592 0.021798035 -0.75400007
-0.047252309 0.021798033 -0.75400007
-0.042532317 0.021121247 -0.75400007
-0.037812319 0.021121247 -0.75400001
-0.025675185 0.021121247 -0.75400001
-0.02230376 0.021121247 -0.75400007
-0.017583765 0.021121247 -0.75400001
-0.013538052 0.021121247 -0.75400001
-0.0014009195 0.021121247 -0.75400001
0.0026447915 0.021121247 -0.75400001
0.0073647872 0.021121247 -0.75400007
0.26724291 0.2441614 -0.75100005
0.26820391 0.2465895 -0.75275004
0.27223837 0.2485372 -0.75222236
0.27560893 0.24989595 -0.75000006
0.27370742 0.25122872 -0.75400001
0.27668759 0.25269717 -0.7523334
0.27775311 0.25528947 -0.75400001
0.22313754 0.0034827199 -0.74500006
0.22760332 0.0034840556 -0.74528581
0.23195286 0.0034850573 -0.74550003
0.23712851 0.0034827199 -0.74500006
0.2424584 0.0034827199 -0.74500006
0.24578959 0.0034827199 -0.74500006
-0.29519457 0.0088323867 -0.74500006
-0.29386207 0.0088323867 -0.74500006
-0.28586724 0.0088323867 -0.74500006
-0.28253606 0.0088323867 -0.74500006
-0.27787241 0.0088323867 -0.74500006
-0.25522035 0.0088323867 -0.74500006
-0.068674095 0.0088323867 -0.74500006
0.10454743 0.0088323867 -0.74500006
0.10787861 0.0088323867 -0.74500006
0.11254227 0.0088323867 -0.74500006
0.11720593 0.0088323867 -0.74500006
0.12253581 0.0088323867 -0.74500006
0.1278657 0.0088323867 -0.74500006
0.13300933 0.008311647 -0.74620008
0.13742389 0.0081784986 -0.74624997
0.14276138 0.0081784977 -0.74624997
0.14795069 0.0088383146 -0.74550009
0.15251647 0.0088323867 -0.74500006
0.15790558 0.0084023885 -0.74633336
0.16272815 0.0081755342 -0.74599999
0.16774672 0.0082693705 -0.74585718
0.17250358 0.0088323867 -0.74500006
0.17716721 0.0088323867 -0.74500006
0.18249711 0.0088323867 -0.74500006
0.18782701 0.0088323867 -0.74500006
0.19295385 0.0085039604 -0.74550009
0.19741896 0.0081755342 -0.74599999
0.20243089 0.0080783106 -0.7458573
0.20742503 0.0081755342 -0.74599999
0.21242198 0.0082727578 -0.74614292
0.21743289 0.0081755333 -0.74600011
0.22251429 0.00750511 -0.74588889
0.22736943 0.0076426174 -0.74736375
0.23223774 0.0073951399 -0.7470001
0.2373606 0.0076149832 -0.74653858
0.24251245 0.0073816818 -0.74572736
0.24719398 0.0079486789 -0.74566668
0.25192285 0.008574388 -0.74580008
0.25631985 0.0083021624 -0.74540013
-0.34116489 0.01150722 -0.74500006
-0.33751327 0.012211608 -0.74699998
-0.33234078 0.013018986 -0.74790913
-0.32788301 0.012378485 -0.74700004
-0.32260117 0.012142574 -0.74744445
-0.31736255 0.011540723 -0.74700004
-0.31245834 0.011665114 -0.74718189
-0.30757052 0.011415678 -0.7468183
-0.30266601 0.011540723 -0.74700004
-0.29738265 0.01174956 -0.74715388
-0.29232687 0.012356606 -0.7476666
-0.28751454 0.011542697 -0.74715388
-0.28262061 0.011680986 -0.74827284
-0.27755228 0.011550977 -0.74772739
-0.2727873 0.01221993 -0.74750006
-0.26796982 0.012343767 -0.7468667
-0.26241496 0.012655738 -0.74683344
-0.25802824 0.012025227 -0.7468183
-0.070100538 0.010853957 -0.74600005
-0.067096345 0.011543538 -0.74722224
-0.062698685 0.013053299 -0.74725008
-0.057579007 0.013568658 -0.74800003
-0.052227654 0.013568658 -0.74800009
-0.047545217 0.013568658 -0.74800009
-0.04286278 0.013568658 -0.74800003
-0.037449412 0.013545312 -0.74675012
-0.032074079 0.013532382 -0.74600011
-0.027404163 0.013532382 -0.74600005
-0.022748588 0.013541002 -0.74650002
-0.017420517 0.013549622 -0.7470001
-0.012085293 0.01355914 -0.74750006
-0.0074001402 0.013549622 -0.7470001
-0.0027248929 0.01355914 -0.74750006
0.002623745 0.013568658 -0.74800009
0.0079688765 0.01355914 -0.74750006
0.012628738 0.013538129 -0.74633348
0.01729361 0.013532382 -0.74600005
0.022684418 0.013563899 -0.74775004
0.027373767 0.013568658 -0.74800009
0.03220284 0.013006448 -0.74718189
0.037193548 0.012765764 -0.74736375
0.042701747 0.01221041 -0.74699998
0.047740512 0.012109955 -0.74671435
0.05262034 0.012743607 -0.74766672
0.057449527 0.012893006 -0.74766672
0.062742509 0.012881513 -0.74699998
0.067667119 0.012744084 -0.74680007
0.0723643 0.013018986 -0.74790913
0.077419028 0.012061675 -0.74730766
0.08258044 0.011415678 -0.74681824
0.087458149 0.011540723 -0.74700004
0.092339747 0.011665114 -0.74718183
0.09747982 0.011540505 -0.7470001
0.10250898 0.011082807 -0.74633342
0.1075002 0.010867609 -0.7470001
0.11217638 0.010867608 -0.7470001
0.11752057 0.010867608 -0.7470001
0.12286477 0.010867608 -0.7470001
0.12771168 0.010883055 -0.74800003
0.13252755 0.010893294 -0.74875003
0.13748309 0.010672607 -0.74900001
0.14261833 0.010224408 -0.74900001
0.14715883 0.010886466 -0.74825007
0.15246172 0.010883056 -0.74800003
0.15721476 0.010887604 -0.74833339
0.16204293 0.010896707 -0.74900001
0.16734488 0.010893293 -0.74875003
0.17241307 0.010875331 -0.74750006
0.17776176 0.010875331 -0.74750006
0.18298703 0.010867608 -0.7470001
0.1876632 0.010867609 -0.7470001
0.19246902 0.010875331 -0.74750006
0.19727932 0.010883055 -0.74800009
0.20223173 0.010896706 -0.74900001
0.20759025 0.010896706 -0.74900001
0.21294875 0.010896705 -0.74900001
0.21763746 0.010896705 -0.74900001
0.22232616 0.010896706 -0.74900001
0.22768466 0.010224407 -0.74900001
0.23237336 0.010224408 -0.74900001
0.23706205 0.010224407 -0.74900001
0.24242057 0.010224407 -0.74900001
0.2480039 0.010663506 -0.74833339
0.25246429 0.010785062 -0.74785727
0.25799233 0.010768435 -0.74671429
0.26044679 0.010169803 -0.74500006
-0.26596805 0.015602795 -0.74900001
-0.26239574 0.016050994 -0.74900001
-0.25926992 0.015602795 -0.74900001
-0.061005052 0.015602795 -0.74900001
-0.059665427 0.015602795 -0.74900001
-0.052297477 0.015602795 -0.74900001
-0.047608778 0.015602795 -0.74900001
-0.042920083 0.015602795 -0.74900001
-0.037561573 0.015602795 -0.74900001
-0.032182906 0.015592379 -0.74850005
-0.027477633 0.016254261 -0.74800009
-0.022809539 0.016264679 -0.74850005
-0.017869048 0.015871717 -0.74900001
-0.01210865 0.015602795 -0.74900001
-0.0074199541 0.015602795 -0.74900001
-0.0027312571 0.015602795 -0.74900001
0.0026272528 0.015602795 -0.74900001
0.0079857623 0.015602795 -0.74900001
0.012674458 0.015602795 -0.74900001
0.017363155 0.015602795 -0.74900001
0.022721667 0.015602795 -0.74900001
0.027410362 0.015602795 -0.74900001
0.26649019 0.23950931 -0.74700004
0.26776597 0.24210949 -0.74766672
0.27272332 0.24353294 -0.7470001
0.27510402 0.24421772 -0.74500006
0.27321896 0.24593495 -0.74860007
0.27718708 0.24750739 -0.74592304
0.27736324 0.25107536 -0.7475
0.16163749 -0.00052668707 -0.74100006
0.17246091 -0.00052668707 -0.74100006
0.17754132 -0.00052668707 -0.74100006
0.18284258 -0.00052668707 -0.74100006
0.18748121 -0.00052668707 -0.74100006
0.19145715 -0.00052668707 -0.74100006
0.21730086 -0.00052668707 -0.74100006
0.22297251 -0.0010969914 -0.74128586
0.22801843 -0.0015246306 -0.74137509
0.23234221 -0.0010971944 -0.74157155
0.23757377 -0.0015911602 -0.74140012
0.24259101 -0.0018571604 -0.74133343
0.24767351 -0.001413748 -0.74133343
0.25242186 -0.0011918051 -0.74100012
0.25613272 -0.0010587815 -0.74100012
-0.34576303 0.0034686956 -0.74200004
-0.34317657 0.0034640208 -0.74100012
-0.33800781 0.0034640206 -0.74100006
-0.33270651 0.0034640206 -0.74100006
-0.32873058 0.0034640206 -0.74100006
-0.32210398 0.0034640206 -0.74100006
-0.31746536 0.0034640206 -0.74100006
-0.31286171 0.0034644108 -0.7410835
-0.30766383 0.0034655794 -0.74133343
-0.30236015 0.0034655794 -0.74133343
-0.29748079 0.0034658909 -0.74140012
-0.29263639 0.0034655798 -0.74133343
-0.2875706 0.0034652962 -0.74127287
-0.28247145 0.0034655794 -0.74133343
-0.2771678 0.0034655794 -0.74133343
-0.27300853 0.0034649558 -0.74120009
-0.26785603 0.0034651896 -0.74125004
-0.26317188 0.0034646052 -0.74112511
-0.25650069 0.0034640208 -0.74100012
-0.25396425 0.0034655794 -0.74133337
-0.067528628 0.0034649558 -0.74120009
-0.062341444 0.0034640206 -0.74100006
-0.059028149 0.0034640206 -0.74100006
0.028442916 0.0034640206 -0.74100006
0.032418873 0.0034640206 -0.74100006
0.035732172 0.0034640206 -0.74100006
0.054949295 0.0034640206 -0.74100006
0.057599932 0.0034640206 -0.74100006
0.062238548 0.0034640206 -0.74100006
0.067539826 0.0034640206 -0.74100006
0.0728411 0.0034640206 -0.74100006
0.078009844 0.0034640208 -0.74100012
0.08145567 0.0034640206 -0.74100012
0.087817192 0.0034640208 -0.74100012
0.092893347 0.0032600884 -0.74115396
0.097239934 0.0031984411 -0.74110013
0.10222679 0.0030852894 -0.74128586
0.10735403 0.0028006558 -0.74137503
0.11271464 0.0028024088 -0.74174994
0.11755273 0.0026486509 -0.74169242
0.12212022 0.0029350433 -0.74166662
0.12730789 0.002802409 -0.74175
0.13252515 0.0028000716 -0.74124998
0.13784373 0.0034655794 -0.74133343
0.14248443 0.0034655791 -0.74133343
0.14724442 0.0029331732 -0.74126679
0.15241165 0.0028000721 -0.74125004
0.15782109 0.0028024088 -0.74174994
0.1626557 0.0026486507 -0.74169242
0.16725153 0.0029356666 -0.74179995
0.17241436 0.0028024088 -0.74174994
0.17772101 0.002802409 -0.74175
0.18259212 0.0026493701 -0.74184626
0.18718602 0.0029362899 -0.74193335
0.19231427 0.002802409 -0.74175006
0.19752066 0.0028006558 -0.74137497
0.20279077 0.0028000716 -0.74124998
0.20757088 0.0028024092 -0.74175
0.21225028 0.0028029934 -0.74187505
0.21750018 0.0027598601 -0.7421335
0.22251132 0.0025041956 -0.74290913
0.22751774 0.0023322972 -0.7431429
0.23260957 0.0025869077 -0.74333334
0.23748568 0.0024086803 -0.7432
0.24235839 0.0025869077 -0.74333334
0.24750265 0.0029038351 -0.74328589
0.25226882 0.0028050172 -0.74249989
0.25729781 0.0028016681 -0.74168754
-0.34576303 0.0061327582 -0.74200004
-0.34226033 0.0074613034 -0.7416001
-0.33757862 0.0074659861 -0.7420001
-0.33248836 0.0073262677 -0.74140012
-0.32784706 0.0077255177 -0.74140012
-0.32221243 0.0074576931 -0.74125016
-0.31741005 0.0075870254 -0.7420001
-0.31277573 0.0074711582 -0.74245465
-0.30777359 0.0074726939 -0.74266672
-0.3024604 0.007472693 -0.74266666
-0.29750577 0.0073538213 -0.74290919
-0.29206461 0.0072071501 -0.74280006
-0.28788671 0.0074793994 -0.74333334
-0.28252539 0.0068772468 -0.74244446
-0.27723971 0.0067065037 -0.74228579
-0.27248958 0.0075930026 -0.74254549
-0.26769212 0.0074726609 -0.74263644
-0.26234645 0.007464699 -0.74191678
-0.25732878 0.0073450007 -0.7420001
-0.2545352 0.0068088342 -0.74300003
-0.067542516 0.0074742734 -0.74280006
-0.062369492 0.0074586812 -0.74133343
-0.057702832 0.0080248304 -0.74100012
-0.05240155 0.0087849647 -0.74100006
-0.04776293 0.0087849647 -0.74100006
-0.042461656 0.0087849647 -0.74100006
-0.037160382 0.0087849647 -0.74100006
-0.032521766 0.0087849647 -0.74100006
-0.027883148 0.0087849647 -0.74100006
-0.022184277 0.0085189184 -0.74100012
-0.017292254 0.0081257746 -0.74150008
-0.012650508 0.0081257746 -0.74150008
-0.0084451344 0.0083415527 -0.74100012
-0.0031438579 0.0083415527 -0.74100012
0.0025991914 0.0087849647 -0.74100006
0.0079004671 0.0087849647 -0.74100006
0.012539084 0.0087849647 -0.74100006
0.017177701 0.0087849647 -0.74100006
0.02292075 0.0083415527 -0.74100012
0.027971447 0.0075788936 -0.74127287
0.032433454 0.0074586803 -0.74133343
0.036812432 0.0077255191 -0.74140012
0.042387348 0.0081257755 -0.74150008
0.047692198 0.0081257746 -0.74150008
0.052987777 0.0077917343 -0.74137509
0.057365604 0.0075924941 -0.74140012
0.062294539 0.0074620349 -0.74166673
0.067600593 0.007462034 -0.74166673
0.072890103 0.0074603572 -0.74150008
0.077538006 0.0074609164 -0.74155563
0.082182765 0.0074611953 -0.74158347
0.087538183 0.0074659861 -0.7420001
0.092710391 0.0073486594 -0.74236375
0.097303413 0.0076058242 -0.74260008
0.1020549 0.0073519922 -0.74272728
0.107589 0.0068088342 -0.74300003
0.11259774 0.0067122523 -0.74285722
0.11719813 0.0069054165 -0.7431429
0.12220687 0.0068088342 -0.74300003
0.12752244 0.0068088342 -0.74300003
0.13233157 0.0064031887 -0.74240005
0.13796768 0.0061327582 -0.74200004
0.14261256 0.0061327582 -0.74200004
0.14745589 0.0068088342 -0.74300003
0.15277147 0.0068088342 -0.74300003
0.1575602 0.0064031892 -0.74240011
0.16251917 0.0061327582 -0.74200004
0.16765337 0.0064031887 -0.74240005
0.17270492 0.0068088342 -0.74300003
0.17770115 0.0067122523 -0.74285722
0.18239732 0.0069077779 -0.74342859
0.18738514 0.0068109003 -0.74325001
0.19210838 0.006583476 -0.74266672
0.19768751 0.0061327582 -0.74200004
0.20299594 0.0061327582 -0.74200004
0.20764083 0.0061327582 -0.74200004
0.21243009 0.0061368905 -0.74250007
0.21751529 0.0061492883 -0.74400008
0.22017667 0.0061492883 -0.74400002
0.24812107 0.0061492883 -0.74400008
0.25277847 0.0065944954 -0.74400008
0.25811529 0.0071745715 -0.74255562
0.26054943 0.0081257746 -0.74150002
-0.34134668 0.010135677 -0.74250001
-0.33604953 0.010156153 -0.74400002
-0.33272284 0.010156153 -0.74400002
