# .PCD v0.7 - Point Cloud Data file format
VERSION 0.7
FIELDS x y z
SIZE 4 4 4
TYPE F F F
COUNT 1 1 1
WIDTH 1383
HEIGHT 1
VIEWPOINT 0 0 0 1 0 0 0
POINTS 1383
DATA ascii
-0.12499948 0.086299039 0.6453768
-0.11516431 0.086433865 0.64583933
-0.1048711 0.086344786 0.64585
-0.094990313 0.086439952 0.64625454
-0.084960297 0.086262502 0.64594924
-0.075128332 0.085772105 0.64599973
-0.065108649 0.086165518 0.6455164
-0.054939825 0.086115569 0.6452741
-0.045057535 0.085878015 0.6453228
-0.035165001 0.086216941 0.64519352
-0.02476483 0.085787311 0.64587158
-0.015070781 0.085718669 0.64623457
-0.0054006628 0.086013153 0.64616424
0.0051543475 0.086275637 0.64604783
0.01497343 0.086254187 0.64589304
0.024680806 0.086511664 0.64605087
0.035098184 0.086882316 0.64583027
0.044784777 0.086650543 0.64611787
0.054835133 0.086846113 0.64596319
0.06511613 0.087017916 0.646577
0.074560843 0.087472074 0.64672524
0.085127428 0.0876026 0.64646542
0.095051073 0.087611839 0.64671445
0.10496848 0.087547682 0.64744192
0.11505 0.08766792 0.64734077
0.12478448 0.087635837 0.64646369
0.13509275 0.0879535 0.64665729
0.14493667 0.087629959 0.6468606
0.1548041 0.087370969 0.64719158
0.16500759 0.087563157 0.64716679
0.1751453 0.088203177 0.64702868
0.18508008 0.088137202 0.64691186
0.19484359 0.088650577 0.64766675
0.20555124 0.088564053 0.64796764
0.21525839 0.088234603 0.64811778
0.22526148 0.088744558 0.64803702
0.23449919 0.088651426 0.64792871
0.24485356 0.088857763 0.64729649
0.2549336 0.088473186 0.64762962
-0.33079925 0.090211526 0.64100003
-0.28035483 0.090211526 0.64100003
-0.27462253 0.090211518 0.64100003
-0.26487756 0.090211518 0.64100003
-0.25467408 0.090326592 0.64099997
-0.24494208 0.090833806 0.64133328
-0.23513879 0.090813272 0.64118737
-0.22576559 0.090565592 0.64099997
-0.21483427 0.090794429 0.64129406
-0.20477796 0.090825982 0.64127773
-0.19471015 0.090786166 0.64123529
-0.18471579 0.091088139 0.6416316
-0.17492107 0.091550574 0.6417501
-0.16520026 0.091466203 0.64142317
-0.15483688 0.091317251 0.64139128
-0.14517213 0.091425002 0.64144444
-0.13480933 0.091398813 0.64125931
-0.12521894 0.091045178 0.64119989
-0.11553007 0.090776682 0.64120001
-0.1047041 0.090777874 0.6411764
-0.094701566 0.090857267 0.64150006
-0.084949024 0.090857267 0.64150006
-0.075679436 0.091093801 0.64142865
-0.064843155 0.090818159 0.64122224
-0.055074759 0.090786882 0.64099991
-0.045329817 0.090786882 0.64099991
-0.035178822 0.09063255 0.64107144
-0.024285272 0.091300875 0.64158332
-0.015370277 0.091265224 0.64147627
-0.0054358053 0.09132085 0.64135998
0.0051177177 0.091283053 0.64145839
0.014457501 0.091244772 0.64133334
0.025112052 0.091192715 0.64121735
0.035313927 0.091805987 0.64159381
0.045590945 0.092353158 0.64190012
0.054818504 0.092314094 0.64191443
0.064826019 0.092071675 0.64194465
0.075462431 0.092451118 0.64214665
0.085194372 0.092109315 0.64173543
0.095013589 0.092065997 0.64238232
0.10501023 0.092234261 0.64274293
0.11509057 0.092098735 0.64213902
0.1249579 0.092027232 0.64200002
0.13486998 0.092075087 0.64197236
0.14514232 0.092169411 0.642286
0.15525803 0.092517965 0.64228219
0.16495639 0.092781529 0.64288402
0.17498393 0.093183927 0.64264029
0.18523836 0.092856973 0.64238316
0.19505692 0.093285829 0.64263278
0.20496823 0.09346772 0.64275944
0.2149923 0.094499797 0.64276105
0.22492009 0.094397232 0.64304405
0.23485824 0.094594069 0.64300001
0.24484439 0.094446383 0.64244467
0.25430349 0.094324589 0.64247453
0.26612547 -0.15319611 0.65597141
0.27233514 -0.15432051 0.65536004
0.264779 -0.14770043 0.65149993
0.2702502 -0.14889781 0.65000004
0.068651475 -0.10344114 0.65868753
0.074541681 -0.10395338 0.65761232
0.084731244 -0.10253932 0.65504557
0.095250726 -0.10361619 0.65655828
0.10363742 -0.1036995 0.65791672
0.075955488 -0.096306361 0.6551072
0.083256818 -0.096298747 0.6500001
0.095963255 -0.095354699 0.65368187
0.10287526 -0.097937182 0.65665215
0.079473689 -0.0883983 0.65480006
0.084971413 -0.084991932 0.65397161
0.092206255 -0.087136313 0.65486962
0.088353559 -0.079977661 0.65900004
-0.34058407 0.074321546 0.65825003
-0.33431575 0.074864544 0.65590394
-0.32508072 0.075912945 0.65419704
-0.31488729 0.075835839 0.65401495
-0.30513746 0.076057769 0.65489775
-0.29492238 0.076360859 0.65555906
-0.28512436 0.076429553 0.65553081
-0.27511802 0.076499425 0.6554119
-0.26454857 0.076704219 0.65552104
-0.2550998 0.07655032 0.65582478
-0.24502887 0.076581277 0.65638012
-0.23500256 0.077335648 0.6567179
-0.22506088 0.077236198 0.65721452
-0.21517362 0.077084817 0.65735745
-0.20488657 0.076919489 0.65615928
-0.19506468 0.077016063 0.65653503
-0.18487518 0.076809779 0.65650022
-0.17510355 0.076678872 0.65619165
-0.16508402 0.077088721 0.65621436
-0.1547441 0.077110954 0.65536976
-0.14481246 0.0776719 0.65488011
-0.13445641 0.076333962 0.65600032
-0.12489263 0.075381264 0.65653759
-0.11524186 0.0755665 0.65635514
-0.10507872 0.075846702 0.6561476
-0.094965674 0.07576704 0.65581363
-0.084769011 0.075213224 0.65516651
-0.075166337 0.074969016 0.65533829
-0.064895235 0.075640447 0.65535945
-0.055052739 0.075240999 0.6553387
-0.044880126 0.075009666 0.65508235
-0.03507008 0.074788749 0.65580571
-0.02493378 0.075523965 0.65483356
-0.014817651 0.075365916 0.65449339
-0.0051832944 0.076184072 0.65443099
0.0052333255 0.075213939 0.65579182
0.015054952 0.07540331 0.65567225
0.025080793 0.07599856 0.65593338
0.035240613 0.075597003 0.65653336
0.045027852 0.075999655 0.65678698
0.054506309 0.07648515 0.65774482
0.065056495 0.077791661 0.65719998
0.075033471 0.077699564 0.65730333
0.085038945 0.077791691 0.65720022
0.095046364 0.077721283 0.65748507
0.10493487 0.078384206 0.65800011
0.11534928 0.078007273 0.65755165
0.1241734 0.078490406 0.65718198
0.13499437 0.078991264 0.65805888
0.14500733 0.079046614 0.6579411
0.15500292 0.078991264 0.65805888
0.16510129 0.079089321 0.65829426
0.17504263 0.079005502 0.65817654
0.18414287 0.079193711 0.65700001
0.19485946 0.079166822 0.65700006
0.20569374 0.079170667 0.65785718
0.2150286 0.078991257 0.6580587
0.22502723 0.079046614 0.6579411
0.23491253 0.078948565 0.65770584
0.24446847 0.079058371 0.65800005
0.25490105 0.079385951 0.65810001
-0.31626159 0.080976292 0.65000004
-0.29940447 0.080976292 0.65000004
-0.28269076 0.080822751 0.6503334
-0.27483073 0.080515653 0.6510002
-0.26564696 0.08062195 0.65076923
-0.25433698 0.080887206 0.65070003
-0.24488933 0.081145346 0.65137029
-0.23501702 0.081350707 0.65162969
-0.22501543 0.081189901 0.65173095
-0.21538165 0.081524447 0.65182763
-0.20530853 0.080931015 0.65086949
-0.19427606 0.08134339 0.65122211
-0.1853382 0.08139006 0.65106893
-0.17551582 0.080782786 0.65079993
-0.16465904 0.080736719 0.65089989
-0.15560432 0.08123263 0.65043479
-0.14552374 0.081188463 0.6500001
-0.13428092 0.081019923 0.6507501
-0.12490916 0.081370786 0.65144455
-0.11475064 0.081369117 0.65155166
-0.10541087 0.081343502 0.65122229
-0.094869301 0.081303462 0.6513449
-0.084999137 0.081058152 0.65066683
-0.074727282 0.080678396 0.65090007
-0.064692006 0.080959521 0.65072721
-0.055139676 0.081096746 0.65061539
-0.044756569 0.080869436 0.65078247
-0.034987349 0.081125416 0.65120828
-0.025718644 0.080834247 0.65062493
-0.015867429 0.080792032 0.6504001
-0.0040466762 0.081156902 0.6503529
0.0051946794 0.081085823 0.6508888
0.015096615 0.081130818 0.65125018
0.025208572 0.081380732 0.65083855
0.034898676 0.081714101 0.65124995
0.04499675 0.081657372 0.65161765
0.054932244 0.081876174 0.65212107
0.064816132 0.081768744 0.65208572
0.07527943 0.082555391 0.65200001
0.084733725 0.08252044 0.65238637
0.094876237 0.082433484 0.65190905
0.10513218 0.082500838 0.65265125
0.115035 0.082310021 0.65200001
0.12522125 0.082657114 0.65220451
0.13507175 0.082967594 0.65274513
0.14497402 0.082571708 0.65276206
0.15515576 0.082341507 0.65251201
0.16514093 0.082492732 0.65326184
0.17506605 0.08308053 0.65309834
0.18493861 0.083120711 0.65286273
0.19514044 0.083572358 0.65289485
0.20495018 0.083495483 0.65308619
0.21506965 0.083090335 0.65310013
0.22489186 0.083445825 0.65268975
0.23503819 0.08357501 0.6529454
0.24485493 0.08376281 0.65359318
0.25421882 0.083580472 0.65335184
0.27571133 -0.24581954 0.66600001
0.27270296 -0.17118071 0.66680002
0.26623583 -0.16411041 0.66704637
0.2723304 -0.16547911 0.66448575
0.26622802 -0.15854053 0.66247052
0.27212328 -0.15944597 0.6606667
0.077636711 -0.11151313 0.66173345
0.085309625 -0.11155986 0.66280776
0.094013885 -0.11189467 0.66235
0.10529409 -0.11196229 0.66200006
0.1138373 -0.11331475 0.66672415
0.076833166 -0.10826273 0.66026664
0.084104016 -0.1077457 0.66161114
0.094885208 -0.10860363 0.66009086
0.10641101 -0.10702112 0.66059989
0.11346664 -0.1057861 0.66567564
0.099111646 -0.091354862 0.66000003
0.1053906 -0.093809813 0.6634376
0.11051905 -0.097938597 0.66649997
0.079679653 -0.081733041 0.66366673
0.082546562 -0.080974698 0.66100007
0.095973454 -0.084612422 0.6634872
0.10173701 -0.088456251 0.66644454
0.078796685 -0.076744661 0.66689998
0.085107461 -0.07485348 0.6646024
0.092990071 -0.075044431 0.66552633
0.086751439 -0.068476535 0.66733342
0.091409326 -0.068088293 0.66744447
-0.071752496 -0.002853723 0.66160005
-0.064712837 -0.0032055392 0.667238
-0.057131749 -0.0033146313 0.6680001
-0.073433481 0.0059162527 0.66716683
-0.065072306 0.0040683965 0.66711098
-0.057020441 0.0030574033 0.66792315
-0.34135684 0.064466 0.66515011
-0.33513486 0.06514959 0.66469002
-0.32536572 0.066004813 0.66527689
-0.31514665 0.06640733 0.66543621
-0.30496243 0.066163726 0.66518992
-0.29506493 0.066596039 0.66514546
-0.285126 0.067351528 0.66584092
-0.27519768 0.067599185 0.66629249
-0.26487041 0.067457207 0.66604871
-0.2550658 0.067480408 0.66628563
-0.24496904 0.06815017 0.66674274
-0.23482296 0.068049036 0.66678804
-0.22462587 0.067789279 0.66622853
-0.21503133 0.067481093 0.66628581
-0.20474362 0.067048356 0.66641289
-0.19433154 0.066835672 0.66646934
-0.18506096 0.066201463 0.6661852
-0.1750554 0.066157222 0.66531122
-0.16495907 0.066146582 0.66541374
-0.15522625 0.066719525 0.66552824
-0.14482582 0.066161968 0.66536856
-0.13497151 0.066152349 0.6650691
-0.12500252 0.066154458 0.66489834
-0.11508386 0.066122852 0.66559309
-0.1049682 0.066235788 0.66489857
-0.095038965 0.066040374 0.66518962
-0.085152797 0.066186734 0.66436833
-0.075012311 0.06665232 0.66419619
-0.064993985 0.06589704 0.66468853
-0.054968122 0.065626405 0.66467172
-0.045074016 0.065406099 0.66489381
-0.03492998 0.065501742 0.66374254
-0.025003694 0.065473586 0.66448456
-0.014905748 0.065493807 0.6646806
-0.0049515134 0.065750517 0.66518003
0.0047113854 0.066124052 0.66500008
0.014941463 0.065940157 0.66463053
0.024940867 0.066148162 0.66523212
0.034867778 0.066423923 0.66555929
0.045178749 0.066764124 0.66541678
0.054933865 0.066884756 0.66565984
0.06488201 0.066833727 0.66586006
0.075140923 0.067318298 0.66526192
0.08458934 0.067179978 0.66627282
0.09504094 0.068067372 0.66715616
0.10392907 0.068487689 0.66681832
0.11509398 0.069335565 0.6671111
0.12525435 0.068746082 0.66720837
0.13434209 0.068995468 0.66729999
0.14447139 0.069444031 0.66743743
0.15542653 0.069412127 0.66746676
0.16501491 0.069407821 0.66747051
0.17091712 0.069193251 0.66766667
0.18873563 0.069558039 0.66733336
0.19072449 0.069558039 0.66733336
0.25805491 0.068940386 0.66742867
0.26061678 0.06992282 0.66700006
-0.34119475 0.071558647 0.66000003
-0.3360008 0.070610791 0.66000003
-0.32434705 0.070844792 0.66024995
-0.3156988 0.070885278 0.66016662
-0.30438635 0.07087145 0.66049993
-0.29518065 0.071076818 0.6606667
-0.28498402 0.07107836 0.66105002
-0.27475947 0.072074145 0.66164291
-0.26559994 0.071989022 0.66125
-0.25526214 0.071539864 0.66074991
-0.24478796 0.071899086 0.66169995
-0.23505811 0.072758377 0.66186839
-0.22491969 0.072338648 0.66173542
-0.21495196 0.072303198 0.66157591
-0.20501013 0.072258666 0.66134375
-0.19499534 0.072331913 0.66214281
-0.18490957 0.07199274 0.66089278
-0.17492019 0.072093196 0.66117233
-0.16528891 0.072207756 0.66117644
-0.15524267 0.072389938 0.66174293
-0.14532295 0.072452113 0.66137153
-0.13570586 0.072073452 0.66029626
-0.12517309 0.070373826 0.66000003
-0.1143442 0.070827447 0.66028571
-0.10512622 0.070979565 0.66012496
-0.095102362 0.070989929 0.66022223
-0.086283974 0.070637122 0.66000003
-0.072980538 0.070543088 0.66000009
-0.065651394 0.070829533 0.66000003
-0.055043887 0.070589252 0.66000003
-0.046673447 0.070373826 0.66000003
-0.032508094 0.070373826 0.66000003
-0.024835192 0.070373826 0.66000003
-0.0148014 0.070373826 0.66000003
-0.0047676074 0.070966236 0.65999997
0.0052661845 0.070373826 0.66000003
0.016104827 0.070696965 0.66000003
0.024900893 0.071234785 0.66066664
0.034094792 0.070904635 0.66053331
0.044838265 0.071006216 0.66037494
0.055954829 0.07215596 0.66062063
0.064957976 0.072830126 0.6608001
0.074925482 0.072910503 0.66104543
0.085131429 0.072949938 0.66243911
0.094982095 0.073085666 0.66238105
0.10505385 0.073477156 0.66230619
0.11473298 0.073412322 0.66268092
0.12534051 0.073917098 0.66296232
0.13505565 0.074323624 0.66341382
0.14496179 0.074302189 0.66340679
0.15504554 0.074369155 0.66330004
0.16500221 0.074171789 0.66296613
0.17526388 0.073927119 0.66418457
0.18519457 0.074298814 0.66417128
0.19514814 0.074297905 0.66431868
0.20469926 0.074650303 0.66400027
0.21495634 0.074449405 0.66437316
0.22514302 0.074142084 0.66436505
0.23491068 0.074537903 0.66419643
0.24514021 0.074376322 0.66391915
0.25501499 0.074507654 0.66404337
0.26048654 0.072280861 0.66666669
0.27562815 -0.2506178 0.67900002
0.27563938 -0.24486965 0.6787647
0.27610108 -0.23627175 0.67742103
0.27550325 -0.22900207 0.67780012
0.26618469 -0.17414212 0.67537218
0.27143592 -0.17541072 0.67413342
0.26422542 -0.16702911 0.67026317
0.27058053 -0.16936781 0.671
0.11840066 -0.12021875 0.67233342
0.12477139 -0.12201323 0.67699999
0.11800204 -0.1160783 0.67078954
0.12460501 -0.11507753 0.67429644
0.11766234 -0.10373548 0.67224008
0.1226167 -0.10608764 0.67518514
0.10976441 -0.091070585 0.671
0.11291832 -0.094363473 0.67418188
0.098253556 -0.08134298 0.67025006
0.10491286 -0.085247725 0.67322916
0.1108846 -0.088411048 0.67600006
0.079058647 -0.072125278 0.67085719
0.081280537 -0.070923641 0.67033339
0.09791638 -0.074771889 0.67250001
0.10212247 -0.079613723 0.67600006
0.079469278 -0.067810819 0.67533338
0.084797233 -0.064468808 0.6736365
0.092860512 -0.063683517 0.67444456
0.08703237 -0.05805786 0.67700005
0.091255337 -0.058027688 0.67725003
-0.063486181 -0.0063984864 0.67014295
-0.075241834 0.0079935808 0.67000002
-0.064756423 0.0088956645 0.67000002
-0.055518452 0.007249176 0.67114288
-0.072287939 0.013394387 0.67321426
-0.065255918 0.013891784 0.67440361
-0.055448063 0.01451879 0.6761061
-0.34200981 0.049167469 0.67800003
-0.33583671 0.049239989 0.67900002
0.25923342 0.043145314 0.67900008
0.26226944 0.043145314 0.67900002
-0.34212863 0.054619748 0.67280561
-0.33509353 0.054962371 0.67454225
-0.32509229 0.055174325 0.67554069
-0.31508735 0.055791147 0.67566669
-0.30496901 0.055896971 0.67553127
-0.29494444 0.056588519 0.67615819
-0.28504986 0.05631518 0.67620772
-0.27529138 0.056450661 0.6761018
-0.26490292 0.057075672 0.67602146
-0.25517681 0.05707147 0.67634708
-0.24495316 0.057134271 0.67619568
-0.23477644 0.056898035 0.67591685
-0.22481614 0.056883764 0.67532665
-0.21519995 0.056819513 0.67589611
-0.20505108 0.056832727 0.67487991
-0.19492361 0.056829613 0.67500013
-0.18499146 0.056828536 0.67512524
-0.1750897 0.056817021 0.67496014
-0.16494106 0.056872852 0.6749413
-0.15494677 0.056789033 0.67538786
-0.1450327 0.05695124 0.67542034
-0.13482578 0.056814939 0.6753729
-0.12467115 0.056603484 0.67541206
-0.11510524 0.056653727 0.67458838
-0.10506266 0.056810368 0.67490041
-0.094778813 0.056382068 0.67549121
-0.084937654 0.056237571 0.67530406
-0.074981384 0.056591272 0.6749633
-0.065169454 0.056170288 0.67526329
-0.055035688 0.056613978 0.67460388
-0.04487323 0.056278784 0.67455184
-0.035026386 0.056161761 0.67439288
-0.025199397 0.056079075 0.67467237
-0.014979439 0.056316108 0.67506576
-0.0048772353 0.056224797 0.67516112
0.0047852746 0.056241829 0.67535728
0.014945464 0.056403853 0.67511666
0.025452986 0.056372743 0.67531502
0.034837648 0.056679122 0.67536008
0.044838343 0.057230163 0.67550033
0.054880194 0.057022251 0.67560428
0.065170757 0.05744753 0.67525017
0.074991152 0.05752657 0.67548794
0.084923588 0.05757723 0.67675012
0.094966859 0.058184508 0.67673546
0.10504103 0.05810304 0.67642438
0.1148892 0.058159597 0.67643762
0.12489735 0.058235131 0.67649996
0.13504866 0.058162913 0.67669696
0.14439464 0.058381211 0.67709088
0.15542012 0.058440149 0.67733335
0.16476747 0.058366723 0.67713803
0.17417572 0.058364876 0.67740005
0.18454601 0.058991458 0.67899996
-0.34456688 0.060615096 0.67000002
-0.33318275 0.0606151 0.67000002
-0.32477343 0.061224651 0.67053342
-0.31499496 0.061598297 0.67059088
-0.30470741 0.061273258 0.67062497
-0.29489371 0.061812647 0.67104161
-0.28509939 0.0625166 0.67105877
-0.27490252 0.062737338 0.67102855
-0.26516896 0.062470179 0.67115164
-0.25485912 0.062650107 0.6710555
-0.2450787 0.063165747 0.67157155
-0.23504043 0.06311965 0.6713903
-0.22528462 0.062930115 0.67107904
-0.21498415 0.062552221 0.67084843
-0.20543525 0.062372629 0.67042851
-0.19624822 0.062338047 0.67033321
-0.1849883 0.061278477 0.67029417
-0.17513354 0.061261717 0.67049992
-0.16494013 0.061261714 0.67049992
-0.15455943 0.061809078 0.67047822
-0.14539327 0.061365183 0.67047065
-0.13495947 0.061261721 0.67050004
-0.12476605 0.061261725 0.67050004
-0.11517224 0.061261717 0.67050004
-0.10497883 0.061261721 0.67050004
-0.094883099 0.061324805 0.6711874
-0.084813334 0.061477661 0.67066669
-0.075367182 0.06179468 0.67079991
-0.06507542 0.061212588 0.67040008
-0.055169772 0.060615096 0.67000002
-0.044983953 0.060615096 0.67000002
-0.034798134 0.060615096 0.67000002
-0.025211483 0.060615096 0.67000002
-0.015031946 0.060645249 0.67033339
-0.0041241064 0.060909934 0.67060006
0.0047503519 0.061261717 0.67049992
0.014420896 0.061192192 0.67056251
0.025137195 0.061261725 0.67050004
0.035202991 0.061544299 0.67047369
0.04493833 0.061882142 0.67070359
0.055158939 0.061908942 0.67099988
0.064912193 0.061990816 0.67083991
0.074792266 0.062433004 0.6707142
0.08566872 0.0623882 0.67124152
0.094957329 0.063357562 0.67116666
0.10551967 0.06399709 0.6712265
0.11515411 0.06430012 0.67149121
0.1248303 0.063880764 0.67121994
0.1352239 0.06417045 0.67205572
0.14535099 0.064251117 0.67301613
0.15476778 0.064232968 0.67306066
0.16495737 0.064456373 0.67272419
0.17515083 0.064365141 0.67349321
0.18481214 0.064509727 0.67309743
0.19495445 0.064576998 0.67400056
0.20501019 0.064635098 0.67442119
0.21499249 0.064588204 0.67445213
0.2248746 0.064878225 0.67435622
0.23494637 0.065063126 0.67453754
0.24519189 0.064861506 0.67434263
0.25371861 0.065988064 0.6725952
0.20546737 0.070237316 0.67000002
0.21505401 0.070237316 0.67000002
0.22404152 0.070237316 0.67000002
0.23591961 0.070400767 0.67012501
0.24349441 0.070527889 0.67022222
0.2522023 0.070237324 0.67000002
0.27256909 -0.25115362 0.68266672
0.26966009 -0.24740414 0.68700004
0.27277124 -0.24516329 0.68445444
0.27509901 -0.23679961 0.68415999
0.27524152 -0.22234949 0.68674999
0.27435946 -0.20515361 0.68800002
0.27066788 -0.19095007 0.68800002
0.26626828 -0.18423766 0.68504536
0.27111593 -0.18506306 0.68376935
0.26420373 -0.1782378 0.68033338
0.13626388 -0.13260578 0.68671995
0.14084743 -0.13166571 0.68800008
0.12736507 -0.12668449 0.68113053
0.13506947 -0.12494409 0.68407017
0.14071095 -0.1259844 0.68733335
0.12906222 -0.11199001 0.68099999
0.13383031 -0.11565384 0.68550009
0.11975018 -0.10083721 0.68000001
0.12628983 -0.10406103 0.68406898
0.13116804 -0.1083889 0.68725002
0.11748721 -0.094189227 0.68341386
0.12290879 -0.096148491 0.68659365
0.10798445 -0.081296355 0.68250006
0.11488765 -0.085626014 0.68550009
0.12146665 -0.088746302 0.68800002
0.10582775 -0.07662712 0.6857059
0.11199202 -0.078322105 0.6877501
0.075705796 -0.064326793 0.68406004
0.081254154 -0.061558634 0.68100005
0.097869232 -0.063598268 0.68325001
0.10310413 -0.068369888 0.68740004
0.077000797 -0.05825026 0.68694752
0.084505983 -0.054399785 0.68424988
0.093336105 -0.055511173 0.68495452
0.08721748 -0.04799052 0.68763649
0.090395868 -0.048914619 0.68800002
-0.064506724 0.01879427 0.67999995
-0.050925635 0.015538992 0.68000001
-0.04543386 0.015913388 0.68459588
-0.038847435 0.016900627 0.68700016
-0.070999652 0.022040157 0.68314296
-0.064972959 0.024330743 0.68471885
-0.055294044 0.024472136 0.68490005
-0.045383237 0.023207016 0.68629169
-0.039227795 0.022234071 0.68725014
-0.064035103 0.030131195 0.68800008
-0.059728261 0.030131195 0.68800002
-0.04434669 0.03877683 0.68800008
0.25847682 0.038820054 0.68440008
0.26198208 0.039721139 0.68300003
-0.34328049 0.044928845 0.68402845
-0.33494267 0.044828206 0.68424606
-0.32502165 0.04570052 0.68460941
-0.31506592 0.046000656 0.68533939
-0.30501488 0.046045113 0.68537289
-0.29516235 0.046661884 0.68580407
-0.28516757 0.04727618 0.68595004
-0.27482855 0.046819568 0.6859349
-0.26507086 0.046976689 0.68597782
-0.25493786 0.046650749 0.68600011
-0.24480595 0.047307488 0.68554783
-0.23484431 0.047409661 0.68600017
-0.22472149 0.046850149 0.6857335
-0.21511844 0.046651952 0.68583345
-0.20510152 0.046699878 0.68651915
-0.19509159 0.046840467 0.68660891
-0.18475743 0.046802677 0.68629795
-0.17481105 0.046389375 0.68570602
-0.16467907 0.046257831 0.68607402
-0.15509735 0.045971058 0.68615794
-0.14524706 0.046522524 0.68588245
-0.13530821 0.04702938 0.68633342
-0.12499109 0.046570137 0.6860801
-0.11490781 0.046887446 0.68638319
-0.10475992 0.046669971 0.68608356
-0.094989367 0.046629868 0.68570226
-0.085102849 0.046481617 0.68535185
-0.074866183 0.046647888 0.68577093
-0.064913273 0.045111392 0.68638235
-0.055254746 0.044808183 0.6859166
-0.045353681 0.044730809 0.68576705
-0.035614952 0.045751475 0.6857419
-0.02476822 0.046686154 0.68490005
-0.014739033 0.046562232 0.68452096
-0.0049481993 0.046595752 0.6850003
0.0050352919 0.04635378 0.68517667
0.014670236 0.046025943 0.68569654
0.02450881 0.046925973 0.68544686
0.035360914 0.046940099 0.68573922
0.045349475 0.046663176 0.68600005
0.054992452 0.046787158 0.685848
0.065036505 0.046860617 0.68586671
0.074839853 0.04730897 0.68640018
0.084989801 0.047497232 0.68638486
0.094785318 0.047923747 0.68637514
0.10500024 0.047964655 0.68694127
0.11530667 0.047921237 0.68712139
0.12504351 0.048351143 0.68755561
0.13530196 0.048046835 0.68725806
0.14432254 0.048566338 0.68747842
0.15492339 0.048633393 0.68766677
0.16496028 0.048125453 0.6874668
0.17409542 0.048468329 0.68734622
0.18501134 0.049238838 0.6875
0.19529335 0.048634347 0.68768007
0.2051589 0.048686039 0.68765229
0.21521688 0.049256966 0.68774998
0.22472826 0.049480952 0.68800014
0.23498265 0.049275111 0.68800002
0.24475928 0.049261514 0.68781251
0.25692511 0.045659654 0.68705416
0.26198208 0.040947255 0.68300003
-0.32112855 0.050533235 0.68000001
-0.31498882 0.050807107 0.68039995
-0.30439726 0.050887953 0.68066669
-0.29535949 0.051607046 0.68114293
-0.2851662 0.051236928 0.6812501
-0.2745702 0.051519617 0.68152398
-0.26511407 0.052037187 0.68126929
-0.25486681 0.052103251 0.68162978
-0.24496634 0.052226622 0.68164283
-0.23526582 0.051860444 0.68141675
-0.22508343 0.051811144 0.68138462
-0.21492666 0.051854234 0.68133348
-0.20510647 0.051932335 0.68172014
-0.19497855 0.05190824 0.68265367
-0.1849575 0.051929139 0.68159097
-0.17513622 0.051816866 0.68146151
-0.16508447 0.051891997 0.68183345
-0.15502588 0.051902026 0.68132007
-0.14507826 0.051860433 0.68141675
-0.13516903 0.051834095 0.68171996
-0.12553461 0.051679514 0.68133348
-0.11467364 0.051815614 0.68149996
-0.10489836 0.051879019 0.68166673
-0.095505752 0.051446725 0.68133336
-0.085384294 0.051265471 0.68162507
-0.075411655 0.051599603 0.68163645
-0.064649016 0.051255956 0.68150008
-0.055067673 0.05179891 0.68130451
-0.045113496 0.051217899 0.68100005
-0.035369448 0.051217902 0.68100011
-0.025013112 0.051209643 0.68088901
-0.014659874 0.051208612 0.68087512
-0.0049193045 0.051217902 0.68100011
0.0048247422 0.051217902 0.68100011
0.014714924 0.051455386 0.68144453
0.024404299 0.051490616 0.68114293
0.035621688 0.051738542 0.6812728
0.045115251 0.052188691 0.68114293
0.055146683 0.05214243 0.68155563
0.064738892 0.052548535 0.68169719
0.075109005 0.052463774 0.68200004
0.085306972 0.052497074 0.68175012
0.095037505 0.053094205 0.68157518
0.10487082 0.053135503 0.68210006
0.11484616 0.053231791 0.6825853
0.12487153 0.053210873 0.68270731
0.13483545 0.053165119 0.68248791
0.14506386 0.053685799 0.6830436
0.15492509 0.053918567 0.68353081
0.1647982 0.053456936 0.68317384
0.1751686 0.054308709 0.68259996
0.18523481 0.054469787 0.68378174
0.19510193 0.055096511 0.68381548
0.20502301 0.055211678 0.68395329
0.21493195 0.055151492 0.68440628
0.22488444 0.055190288 0.68489051
0.2349609 0.055282813 0.68543059
0.24484734 0.055238791 0.68548435
0.25446585 0.055193588 0.68585461
0.22860163 0.060299065 0.68000001
0.23589896 0.060299065 0.68000001
0.24258812 0.060299065 0.68000001
0.25456318 0.060858298 0.68080008
0.27286038 -0.24174932 0.69200009
0.27372774 -0.23510574 0.69528955
0.27461535 -0.22680402 0.69611108
0.27436915 -0.2130335 0.69672
0.27414769 -0.2058571 0.69616002
0.2668305 -0.19343761 0.6941936
0.27233556 -0.19685405 0.6953333
0.26291066 -0.18778686 0.69090003
0.13526671 -0.14232622 0.69623345
0.14471295 -0.14300476 0.69628578
0.15194103 -0.14266707 0.69750011
0.13527651 -0.13782409 0.69238883
0.14557195 -0.13508105 0.6922003
0.15276679 -0.13565367 0.69577783
0.14544059 -0.12508883 0.69362867
0.15108433 -0.12646268 0.69762498
0.1378438 -0.11323243 0.69300002
0.14173907 -0.11728571 0.69515395
0.12900926 -0.10177401 0.69050002
0.13283853 -0.10572155 0.6941765
0.12685363 -0.096344747 0.6902858
0.11818616 -0.082695238 0.69014293
0.12175808 -0.085436203 0.69069999
0.10853732 -0.072075106 0.69033343
0.11263756 -0.074380495 0.69066679
0.10596358 -0.064497635 0.69458354
0.11242022 -0.065248542 0.69666672
0.078000098 -0.053868674 0.69083345
0.081197195 -0.050708391 0.69000006
0.097462028 -0.054439396 0.6940909
0.10346649 -0.056639861 0.69742429
0.078913555 -0.045866456 0.69800001
0.084834062 -0.044365231 0.69383031
0.094626375 -0.045211207 0.69499999
0.10044865 -0.049625587 0.69800001
0.087237597 -0.038669474 0.69763637
0.09122853 -0.038737811 0.69749999
-0.069774717 0.028980106 0.69000006
-0.050954647 0.028670436 0.69000006
-0.044025075 0.028091425 0.69057906
-0.037756585 0.0272307 0.6912728
-0.34254739 0.036096729 0.69285184
-0.33499271 0.035822488 0.69427806
-0.32537135 0.036644597 0.69507158
-0.3147606 0.037104469 0.69485301
-0.30477658 0.036240954 0.69560891
-0.29541326 0.03701086 0.69550014
-0.28527138 0.037366156 0.69516134
-0.27526677 0.037980471 0.69519252
-0.26468956 0.037398681 0.6957742
-0.25511929 0.037645619 0.69567859
-0.24485435 0.037906852 0.69655991
-0.23444924 0.036688525 0.69592315
-0.22511402 0.036881056 0.69584221
-0.21465665 0.037613556 0.69529635
-0.20488319 0.037609175 0.69500005
-0.19450845 0.037525766 0.69565517
-0.18485108 0.0373272 0.69519353
-0.17530151 0.037792265 0.69444001
-0.16502799 0.037842482 0.69354171
-0.15505956 0.037837077 0.6943599
-0.14494443 0.037943237 0.69540006
-0.13498452 0.037998542 0.6964168
-0.12463358 0.037785456 0.69603854
-0.11503387 0.037330147 0.69600004
-0.10520729 0.037418492 0.6958127
-0.094883122 0.038028497 0.69604009
-0.084693775 0.03778195 0.69596171
-0.074599907 0.035571504 0.69467407
-0.065534048 0.035012025 0.69024593
-0.054968096 0.03466088 0.69091612
-0.044536706 0.033979118 0.69092864
-0.035359588 0.035316214 0.6937595
-0.024659054 0.037054766 0.69548577
-0.014980345 0.036710311 0.69572508
-0.0052437177 0.037134957 0.69541192
0.0045720208 0.037597291 0.6956073
0.014862422 0.037907749 0.69475007
0.024819208 0.037931014 0.69516677
0.035112135 0.037653897 0.6951853
0.044384547 0.037667915 0.69544446
0.054760382 0.038001113 0.69645852
0.064764172 0.038024228 0.6968751
0.074757062 0.038020924 0.69582617
0.084637754 0.037992317 0.69629169
0.094649643 0.038012847 0.6966666
0.1048687 0.038072713 0.69684011
0.11488783 0.037996791 0.69734788
0.12477991 0.038063698 0.69667989
0.13466671 0.038054273 0.69740915
0.14467689 0.038689271 0.69756252
0.15475453 0.038713928 0.69800001
0.16465265 0.038692798 0.69762516
0.17445524 0.038740668 0.69773334
0.18399617 0.038858511 0.69800007
0.19033425 0.039340451 0.69800001
0.20531519 0.039340455 0.69800007
0.21467827 0.039340451 0.69800001
0.22424942 0.039340451 0.69800007
0.23465283 0.039340451 0.69800001
0.2402707 0.039340451 0.69800001
0.25691843 0.038356952 0.6961
-0.34416983 0.040490456 0.69014293
-0.33325565 0.040128238 0.69000006
-0.32409495 0.040666364 0.69073337
-0.31497481 0.040855262 0.69113332
-0.3051911 0.04079688 0.69147056
-0.29495844 0.041562207 0.69169235
-0.28522906 0.042090286 0.69175017
-0.27571765 0.041769762 0.69214815
-0.26533243 0.041822203 0.69171441
-0.25492203 0.041471191 0.69176936
-0.24501218 0.042175796 0.692559
-0.23497732 0.042321041 0.69215173
-0.22499456 0.041666914 0.69196308
-0.21458216 0.04144584 0.69134796
-0.20489179 0.04144505 0.69133341
-0.19460584 0.041637853 0.69148153
-0.18526632 0.04164746 0.69140011
-0.1751173 0.041279268 0.69152379
-0.16583498 0.041152347 0.69078958
-0.15461567 0.040827993 0.69137496
-0.14454137 0.04139461 0.69139135
-0.13485751 0.041809354 0.69150007
-0.12493323 0.041445065 0.69133341
-0.11493564 0.041631989 0.69126934
-0.10518056 0.041457184 0.69154167
-0.095181085 0.041458666 0.69240004
-0.084830232 0.041390594 0.69250011
-0.075485893 0.041450724 0.69141674
-0.068849139 0.040437907 0.69000006
-0.033186045 0.041197248 0.69106245
-0.024813591 0.041505605 0.69233334
-0.014902366 0.041485168 0.69200009
-0.0049939482 0.041445058 0.69133347
0.0044585504 0.041279264 0.69152379
0.014804115 0.040864795 0.69199997
0.025024557 0.041720524 0.69133341
0.034313496 0.041924916 0.69106686
0.044684257 0.041491475 0.69128019
0.055180494 0.041682865 0.69211555
0.064922169 0.041774269 0.69239295
0.075172037 0.042122349 0.69228131
0.085058242 0.042267904 0.69262862
0.095280826 0.042737857 0.69220012
0.10523989 0.042759445 0.69255036
0.11528895 0.04281231 0.69340008
0.1252185 0.043076701 0.69220477
0.13481194 0.04294382 0.69266689
0.14537688 0.043468565 0.69272941
0.15504004 0.043488756 0.69270021
0.16491148 0.042954639 0.69244206
0.17543812 0.043418631 0.69318199
0.18484785 0.044100117 0.6934365
0.19469252 0.043537542 0.69374508
0.20466164 0.043404713 0.69297945
0.21484801 0.044051059 0.69337529
0.22507621 0.044397119 0.69363356
0.23499253 0.04410683 0.69426835
0.24509865 0.044166401 0.69418997
0.25379047 0.044047561 0.69331264
0.25232613 0.051276367 0.69000006
0.27130166 -0.23319355 0.70076472
0.26913723 -0.22291306 0.70311111
0.27233854 -0.22495487 0.70120531
0.26941246 -0.21487936 0.70524997
0.27156851 -0.21586671 0.70219362
0.26641706 -0.20350455 0.70524335
0.27168187 -0.20555228 0.7025001
0.26550636 -0.19835581 0.70176935
-0.12715302 -0.15257342 0.70674998
0.12741715 -0.15299539 0.70518744
0.13448058 -0.15316239 0.70553595
0.14538366 -0.1514345 0.70646656
0.15549794 -0.15182626 0.70542872
0.16405736 -0.15215902 0.7068125
-0.12523955 -0.14760965 0.70719045
0.12818475 -0.14667441 0.7035296
0.13413514 -0.14771718 0.70172423
0.14442013 -0.14825174 0.70260006
0.15576293 -0.14621955 0.70189762
0.16351844 -0.14521274 0.70453495
0.15697487 -0.13443631 0.70150006
0.16164462 -0.13736211 0.70550019
0.14775635 -0.12166282 0.70033336
0.15324807 -0.12556231 0.70171434
0.13919723 -0.11055747 0.70033336
0.1441917 -0.11372145 0.70326096
0.13664612 -0.10437092 0.70223814
0.14205956 -0.10785146 0.70535719
0.11200435 -0.061077476 0.70000005
0.10540493 -0.053770803 0.70071429
0.11075237 -0.059820842 0.70000005
0.078864209 -0.042876106 0.70033336
0.081017651 -0.041913826 0.70000005
0.098234303 -0.042427339 0.70100009
0.10182954 -0.046952263 0.70177776
0.07979317 -0.039884921 0.70300001
0.086221009 -0.034729339 0.7030527
0.093987584 -0.03521096 0.70400012
0.08732532 -0.028729646 0.708
-0.34134093 0.02659433 0.70570004
-0.33486876 0.027188772 0.70470005
-0.32529172 0.027361631 0.70513898
-0.3152847 0.027663663 0.70541948
-0.30524185 0.027820662 0.70542419
-0.29477245 0.028351087 0.70520848
-0.28537294 0.028606152 0.70525014
-0.274634 0.028516075 0.7065652
-0.26483229 0.028409049 0.7066521
-0.25548008 0.028814912 0.70622218
-0.2448259 0.028409716 0.70666665
-0.23492472 0.028462574 0.70660865
-0.22466677 0.028206065 0.70646167
-0.21579595 0.028626291 0.70705265
-0.20507781 0.02852276 0.70647621
-0.19518049 0.028389199 0.70616001
-0.18493636 0.028924439 0.70647061
-0.17455216 0.028520223 0.70654547
-0.16477795 0.028409708 0.70666671
-0.15498492 0.027971692 0.70629627
-0.14524351 0.028379854 0.70591664
-0.13566914 0.028533336 0.70686364
-0.12498552 0.028948935 0.70705879
-0.11490322 0.028311852 0.70675999
-0.1049464 0.027773324 0.70662504
-0.094745107 0.028133428 0.70681494
-0.084228367 0.027414251 0.7058183
-0.078243807 0.02774987 0.70463639
-0.033039313 0.027545175 0.70410007
-0.025549904 0.027309841 0.70575684
-0.01520266 0.027748261 0.70600009
-0.0049844016 0.027168946 0.70574367
0.0047794697 0.027565058 0.7060883
0.015108494 0.027757047 0.70621872
0.025211958 0.027755735 0.70618755
0.035312243 0.027751796 0.70609385
0.045263771 0.028300745 0.70648009
0.054558352 0.028817901 0.70693749
0.064486399 0.029079614 0.70749992
0.074628562 0.029087488 0.7076875
0.084732853 0.029079614 0.70749998
0.094035409 0.029298445 0.70766681
0.10505347 0.029736105 0.70800006
0.11518386 0.029736105 0.70800006
0.12615842 0.029736107 0.70800006
0.13481146 0.029736107 0.70800006
0.14557497 0.029736107 0.70800006
0.15443906 0.029736105 0.70800006
0.16456942 0.029736105 0.70800006
0.17469978 0.029736105 0.70800006
0.18473329 0.029720359 0.70762491
0.1917948 0.029736109 0.708
-0.34208512 0.031306956 0.70050001
-0.33528936 0.031243175 0.69999999
-0.32462639 0.031941086 0.70062965
-0.31556123 0.032533169 0.70082134
-0.30568326 0.031523693 0.70066667
-0.29489347 0.032364391 0.70131248
-0.2849409 0.032723997 0.70193952
-0.27496758 0.033255164 0.70188117
-0.26503345 0.032716829 0.70299989
-0.25482252 0.033146139 0.70185751
-0.24548058 0.033177033 0.70163172
-0.23583326 0.032054476 0.70195663
-0.2245189 0.032280356 0.70166689
-0.21529207 0.033059016 0.70231444
-0.20515801 0.033066686 0.70221615
-0.19540955 0.032915968 0.70231462
-0.18525903 0.032689866 0.70325011
-0.17499548 0.03326245 0.70269996
-0.16518705 0.033287149 0.70323086
-0.15508372 0.033281986 0.70244998
-0.14492528 0.033316068 0.7025122
-0.13489766 0.033324156 0.70332527
-0.12513621 0.033117957 0.70269459
-0.11480883 0.032659061 0.70218205
-0.10455411 0.032753393 0.7025758
-0.094901718 0.0332812 0.70243609
-0.085123293 0.033202942 0.7015
-0.077987254 0.031811245 0.70027274
-0.032138396 0.031658452 0.7005555
-0.025453806 0.032398533 0.70117229
-0.01510771 0.031985134 0.70162505
-0.0048175445 0.032493249 0.70173359
0.005251281 0.032974605 0.70186108
0.015021967 0.033270489 0.70220006
0.025055433 0.033251356 0.70180029
0.034846731 0.033050284 0.70186502
0.045440454 0.033082254 0.70254076
0.055248238 0.033291265 0.70265013
0.065378353 0.033331033 0.70347494
0.0752239 0.033475216 0.70320016
0.085102759 0.033349443 0.70317948
0.094912112 0.033332955 0.7042107
0.10475913 0.033370376 0.70432514
0.11479568 0.033358119 0.70407516
0.124857 0.033354532 0.70400017
0.13495468 0.033392083 0.70412511
0.14493525 0.033979107 0.70387501
0.15497968 0.033973776 0.70375031
0.16503803 0.034057025 0.70408523
0.17518385 0.034033842 0.70372581
0.18529899 0.034240905 0.70316327
0.19525528 0.035133984 0.70317507
0.20518814 0.03468252 0.70357895
0.21532597 0.034595586 0.70362514
0.22517201 0.034794401 0.70345449
0.23488659 0.034762781 0.70411319
0.24529675 0.035705574 0.70373261
0.25419986 0.035663951 0.70390487
0.26731613 -0.21260235 0.71548003
0.27111888 -0.21575406 0.71600002
0.26405334 -0.20668809 0.7130456
0.26382059 -0.19988634 0.71100003
-0.15247677 -0.16504779 0.71791667
-0.14641166 -0.16340367 0.7150625
0.14721988 -0.16144596 0.71600002
0.15491466 -0.16175678 0.71649992
0.16403073 -0.1609666 0.71625006
-0.15207307 -0.15842929 0.71814293
-0.14441925 -0.15540935 0.71553051
-0.13540991 -0.15460493 0.71074498
0.13864386 -0.15676813 0.71033335
0.14528866 -0.15658084 0.71157587
0.15478659 -0.15655242 0.71292871
0.1658496 -0.15616277 0.71157146
0.17317235 -0.15434113 0.71212518
-0.14179692 -0.14809507 0.71775001
-0.13440928 -0.14576727 0.71503842
-0.12570886 -0.14307581 0.71166676
0.16867475 -0.14428529 0.71062499
0.17168394 -0.14422666 0.71578574
-0.13117494 -0.1383484 0.717875
-0.12576485 -0.13671799 0.71631235
0.16620854 -0.13595174 0.71320838
0.17098419 -0.13759831 0.71900004
0.15938565 -0.12417062 0.71600002
0.16197234 -0.12437406 0.71799999
0.14855912 -0.11248019 0.71116674
0.15351409 -0.11314894 0.71689469
0.13841516 -0.10143816 0.71133339
0.14506482 -0.10451363 0.71373534
0.15131831 -0.1088364 0.71660006
0.13921927 -0.098691516 0.71766675
0.14154449 -0.098795399 0.71725005
0.096486352 -0.032307483 0.71085715
0.086716585 -0.024839085 0.71422499
0.093122713 -0.02443512 0.71427017
0.088385522 -0.017972104 0.71833342
0.092651837 -0.01728069 0.71820003
-0.34127352 0.018286072 0.713875
-0.33499023 0.01734633 0.71599978
-0.32495749 0.017216597 0.7161023
-0.31535575 0.018134262 0.71673322
-0.30461761 0.018041963 0.71710318
-0.29485658 0.017931499 0.71627581
-0.28496987 0.018579867 0.71699995
-0.27535459 0.018595433 0.71709985
-0.2652612 0.01854117 0.71749997
-0.25517523 0.018593447 0.7173478
-0.24525096 0.018245811 0.71714807
-0.23531392 0.018737385 0.71795231
-0.22484665 0.01854166 0.71752375
-0.21480031 0.0182807 0.71699995
-0.20516616 0.018286362 0.71685183
-0.19490007 0.018726053 0.71752381
-0.18503706 0.018560857 0.71824998
-0.17501774 0.018486217 0.71763635
-0.16483308 0.018367795 0.7167598
-0.15494852 0.017930441 0.71641934
-0.14526358 0.018235018 0.71674049
-0.1343074 0.018156761 0.71685714
-0.12524736 0.018176926 0.7173599
-0.11509025 0.018536564 0.71733332
-0.10468601 0.018284258 0.71715373
-0.094724953 0.017695218 0.71702933
-0.084522709 0.016887346 0.71638083
-0.078591824 0.018006505 0.71550012
-0.031490818 0.017896701 0.71750009
-0.024759863 0.017281456 0.71714681
-0.015415126 0.016569214 0.71589583
-0.0052842712 0.017129852 0.71639007
0.0050761662 0.01722542 0.71644992
0.015338682 0.017238615 0.71694994
0.024834666 0.01778069 0.71731025
0.034579057 0.017886348 0.71709359
0.044833999 0.017883927 0.71699977
0.054719131 0.018236641 0.71677768
0.065232769 0.01832466 0.71676916
0.075016089 0.018539539 0.71742857
0.084648982 0.019186245 0.71749997
0.094979636 0.01919917 0.71799999
0.10525309 0.01919917 0.71799994
0.11521579 0.019240353 0.71793336
0.12396675 0.019451788 0.71780002
0.1311191 0.019872177 0.71900004
0.14783673 0.019872177 0.71900004
0.15490957 0.019872177 0.71900004
0.16455434 0.019872176 0.71899998
0.18898779 0.019872177 0.71900004
0.19541764 0.019872176 0.71899998
0.20377646 0.019872177 0.71900004
0.25843024 0.019872177 0.71900004
-0.34210482 0.022604002 0.71022224
-0.33501831 0.02219547 0.71076018
-0.32469198 0.0227076 0.7105186
-0.31540832 0.022787845 0.71173531
-0.30480254 0.023054842 0.71188229
-0.29485476 0.023499558 0.71170008
-0.28460887 0.023931704 0.71193343
-0.2751095 0.023543848 0.71207869
-0.26510006 0.023542197 0.71209753
-0.25517112 0.024080526 0.7122559
-0.24522899 0.023501297 0.71175003
-0.23520795 0.023516102 0.71224993
-0.22498904 0.02336821 0.71181583
-0.21463512 0.02393806 0.71213341
-0.20493419 0.023649273 0.71239984
-0.19485001 0.023442175 0.71292496
-0.18530326 0.024199909 0.71277255
-0.1754365 0.023716664 0.7128095
-0.16507226 0.023539003 0.71189487
-0.15496764 0.023177668 0.71099991
-0.14510988 0.023491479 0.7114501
-0.13472964 0.023761865 0.71155822
-0.12502712 0.024010954 0.71208692
-0.11497508 0.023333989 0.71191877
-0.10490964 0.022843301 0.71177423
-0.095197663 0.023321876 0.71169454
-0.085735612 0.022868499 0.71120703
-0.078483507 0.022793004 0.71177781
-0.032066904 0.022495087 0.71133339
-0.024946461 0.022548076 0.71107703
-0.015314219 0.022847002 0.71121895
-0.0053122742 0.02229633 0.71072006
0.0052919537 0.022709759 0.71090013
0.01521326 0.022843674 0.7111249
0.025398524 0.022852406 0.71140647
0.035263855 0.022926915 0.71106666
0.044946223 0.023313977 0.7114445
0.054915361 0.023931647 0.71191126
0.064934991 0.024160691 0.71241689
0.0751369 0.024163134 0.71249986
0.085173659 0.024284013 0.71280438
0.095198579 0.024534086 0.71291989
0.10503282 0.024810286 0.7127856
0.1151327 0.024758084 0.71335173
0.12495558 0.02501535 0.7134462
0.1349186 0.024914011 0.71377766
0.14476264 0.025009369 0.71348274
0.15497464 0.024830116 0.71338159
0.16521284 0.024920465 0.71464801
0.1750953 0.024879301 0.7147963
0.18487626 0.024891349 0.71444428
0.19499916 0.025415344 0.71385694
0.20495173 0.025433924 0.71421659
0.21502392 0.02544005 0.71424216
0.22491108 0.025705695 0.71366096
0.23496856 0.026136899 0.71414822
0.24504533 0.026032748 0.71364379
0.25509217 0.025464315 0.71492445
0.23932193 0.031094693 0.71000004
0.24440143 0.031094696 0.7100001
0.25590217 0.03161329 0.71020001
0.26741409 -0.22267106 0.72633326
0.27179745 -0.22379594 0.72645462
0.26607531 -0.21710467 0.72282368
0.27094233 -0.21902907 0.7215001
-0.17176075 -0.17379013 0.7280001
-0.16559662 -0.17214011 0.72450006
-0.15790215 -0.17151654 0.72111118
-0.17127247 -0.16937935 0.72800004
-0.16428089 -0.1657296 0.72473168
-0.15754202 -0.1645523 0.72116679
-0.16180034 -0.1584053 0.72712505
-0.15485838 -0.15507691 0.72357154
-0.14813589 -0.15248819 0.72075009
-0.15247557 -0.14758164 0.72606254
-0.1454909 -0.14445063 0.72280842
-0.13763905 -0.1419988 0.72109103
0.17538083 -0.14203309 0.72187507
-0.14254883 -0.13787048 0.72564709
-0.13488042 -0.13486226 0.72397918
-0.12490386 -0.13198841 0.72208703
0.16803984 -0.13169119 0.72200012
0.17352542 -0.13591725 0.7251429
-0.13156436 -0.12838277 0.72712505
-0.1248339 -0.12712631 0.72534305
-0.11999528 -0.12703295 0.72500002
0.16544949 -0.12354887 0.72276199
0.17158729 -0.12868848 0.727
0.15778612 -0.11189446 0.72200012
0.16126239 -0.11336657 0.72442859
0.14739846 -0.10159866 0.72000003
0.15418859 -0.10738748 0.72292864
0.13749757 -0.093534924 0.72567999
0.14384975 -0.094709225 0.72328955
0.13847502 -0.088642076 0.7280001
0.14226548 -0.089135781 0.7280001
0.12820315 -0.070055068 0.72800004
0.1193985 -0.060404804 0.72200006
0.1263542 -0.064104937 0.72568583
0.13124129 -0.065698743 0.7280001
0.1193211 -0.056795578 0.7228334
0.12347083 -0.056420673 0.72511113
0.10800632 -0.041470714 0.72180003
0.11270939 -0.041958895 0.72642869
0.10553793 -0.034723505 0.72558337
0.11155744 -0.039505836 0.72700012
0.082906708 -0.021626359 0.72191679
0.098701857 -0.023866992 0.72518188
0.10194877 -0.027659945 0.7272501
0.085222922 -0.015026287 0.72426677
0.094104618 -0.014069803 0.72276199
0.091094211 -0.0099377409 0.72800004
-0.34109634 0.0083499867 0.72733343
-0.33526915 0.0085888561 0.72652376
-0.32478672 0.0090416884 0.7269333
-0.31477141 0.0090006692 0.72712493
-0.30668753 0.0094043566 0.7280001
-0.2943179 0.009665736 0.7280001
-0.28546384 0.0094043566 0.7280001
-0.27478689 0.009665736 0.7280001
-0.26502138 0.0096657369 0.7280001
-0.25438783 0.0092301033 0.7280001
-0.24483934 0.0086202184 0.72799993
-0.23561633 0.0091211945 0.7280001
-0.22515805 0.0091630826 0.7280001
-0.21503907 0.0089616422 0.72746676
-0.20528322 0.0090469988 0.72733331
-0.19611192 0.0091630826 0.7280001
-0.18546499 0.0094043566 0.7280001
-0.17517869 0.0096657369 0.7280001
-0.16463192 0.0094043566 0.7280001
-0.15465036 0.008406423 0.72730422
-0.14554486 0.0090084933 0.72771436
-0.13434508 0.0087856185 0.72733337
-0.12491888 0.0090023289 0.72725004
-0.11550056 0.0092301033 0.7280001
-0.10408576 0.009273666 0.7280001
-0.094432183 0.0086053079 0.72684997
-0.087528013 0.0088744415 0.72457153
-0.033569422 0.0078133838 0.72713619
-0.025104498 0.0079637039 0.72628576
-0.014986509 0.008335378 0.72614276
-0.0048764776 0.0079674991 0.7265715
0.0052677924 0.0080498112 0.72651851
0.014519515 0.0082767662 0.72642857
0.025123725 0.0085335262 0.72709519
0.035073142 0.0083499867 0.72733331
0.044889648 0.008917328 0.72699994
0.054921068 0.008965183 0.72773331
0.064546496 0.0095205251 0.7280001
0.074818358 0.0096657369 0.7280001
0.084583864 0.009665736 0.7280001
0.094349392 0.0096657369 0.7280001
0.10216179 0.0096657369 0.72800004
-0.33452734 0.01207111 0.72216666
-0.32428953 0.012438129 0.72219998
-0.31478295 0.013138277 0.7225883
-0.30525786 0.012905637 0.72365719
-0.29480559 0.013119257 0.7234838
-0.2850908 0.013489244 0.72310007
-0.27480158 0.013742482 0.72307301
-0.26486567 0.013428861 0.7233845
-0.25491518 0.013487442 0.72299999
-0.24480806 0.01334382 0.72300005
-0.23494257 0.01370208 0.72292858
-0.22513829 0.013620839 0.72317511
-0.21523792 0.013292822 0.72273517
-0.20483902 0.013347541 0.72276312
-0.19517985 0.013617875 0.72282052
-0.18517828 0.013579707 0.7227
-0.17517485 0.013456354 0.72318417
-0.16531806 0.013357914 0.72339475
-0.15487944 0.012924563 0.72280014
-0.14480309 0.013279191 0.72305405
-0.13523532 0.013143079 0.72288239
-0.12474779 0.013303258 0.72269446
-0.11491372 0.013491397 0.723225
-0.1051216 0.013224283 0.7231766
-0.095442787 0.012757707 0.72237039
-0.086399242 0.012100979 0.72177792
-0.034382366 0.013202747 0.72338712
-0.025227904 0.012283141 0.72191668
-0.014904666 0.011533496 0.72221434
-0.0050195521 0.012120992 0.7220434
0.0051157633 0.012180496 0.72220826
0.01543878 0.012170914 0.72166675
0.025269853 0.01274956 0.72185177
0.034837436 0.012830747 0.72243744
0.045177914 0.012831684 0.72250003
0.055433169 0.0133722 0.72291178
0.064898878 0.013244525 0.7234723
0.074951053 0.013487734 0.72300005
0.085066035 0.01424342 0.72271729
0.094956763 0.014102197 0.72360009
0.10490913 0.014081998 0.72382975
0.1149436 0.014259426 0.72365224
0.12526169 0.014603007 0.72403866
0.13512075 0.015357244 0.72396439
0.14466234 0.015477646 0.7236141
0.15496141 0.015633013 0.72316271
0.16511874 0.015391274 0.72291821
0.17506278 0.016319463 0.72279155
0.18478225 0.015999684 0.72377378
0.19476923 0.015661782 0.72355568
0.20523562 0.016293818 0.72248775
0.21480794 0.016595276 0.72275543
0.22479206 0.016695157 0.72393471
0.23493259 0.016877024 0.72439134
0.24511236 0.016716287 0.72470832
0.25511727 0.016572231 0.7239362
0.26065552 0.01291432 0.727
0.22981507 0.021192351 0.72000003
0.23496611 0.021192353 0.72000003
0.24398042 0.021192353 0.72000003
0.25531271 0.021709366 0.72000003
0.26864454 -0.23174439 0.73583335
0.27315179 -0.23372106 0.73480958
0.26727855 -0.22751181 0.73154557
0.27336577 -0.22803682 0.73012501
-0.19313674 -0.18387842 0.73827285
-0.18748178 -0.1825967 0.73650008
-0.19236475 -0.17989853 0.73900002
-0.18410529 -0.17586187 0.73574996
-0.1765365 -0.17385674 0.73199993
-0.18112996 -0.16862205 0.73900002
-0.17474341 -0.16575734 0.73528564
-0.16834478 -0.16260186 0.73083341
-0.17165749 -0.15955663 0.73900002
-0.1647436 -0.15514964 0.73386121
-0.15838732 -0.15217902 0.73012501
-0.16191779 -0.14806508 0.73611116
-0.15562181 -0.1440596 0.73369998
-0.14954703 -0.14101394 0.73000002
-0.15242566 -0.13744956 0.73681259
-0.14529833 -0.13402778 0.73380947
-0.13838995 -0.13155298 0.73083341
0.17172061 -0.13058963 0.73033333
-0.14249477 -0.12788418 0.73741674
-0.13503236 -0.12497023 0.73465914
-0.12527239 -0.12253386 0.73183322
0.16893503 -0.12184867 0.73100001
0.17451993 -0.12390382 0.73522222
0.18036647 -0.1235161 0.73900002
-0.13147561 -0.11879151 0.73850006
-0.12537242 -0.11788896 0.7365557
0.16676742 -0.11470006 0.73310345
0.17235811 -0.11776375 0.73724997
0.15861702 -0.10718133 0.73316669
0.16105786 -0.10690912 0.7343334
0.13312511 -0.091870591 0.73000002
0.14817803 -0.091724716 0.73233336
0.15132409 -0.092304289 0.73660004
0.12703702 -0.083082937 0.73211104
0.13438264 -0.084767565 0.73070908
0.14448461 -0.085077792 0.73392093
0.12579197 -0.075042143 0.73106396
0.13484769 -0.075190119 0.7309829
0.14224139 -0.075452812 0.73573691
0.12398559 -0.068937041 0.73000002
0.13421223 -0.065347277 0.73164999
0.12747121 -0.053898081 0.73226672
