# .PCD v0.7 - Point Cloud Data file format
VERSION 0.7
FIELDS x y z
SIZE 4 4 4
TYPE F F F
COUNT 1 1 1
WIDTH 1364
HEIGHT 1
VIEWPOINT 0 0 0 1 0 0 0
POINTS 1364
DATA ascii
-0.15724358 0.058164157 -0.84200001
-0.15317895 0.059245415 -0.84180003
-0.14897168 0.059792437 -0.84100002
-0.16554917 0.060076818 -0.84500003
-0.16202274 0.061088108 -0.84500015
-0.15799253 0.062605046 -0.84500015
-0.15255275 0.063049659 -0.84416676
-0.1471035 0.062979914 -0.84322226
-0.14250349 0.062946714 -0.84277779
-0.13746955 0.063100852 -0.84299999
-0.13164178 0.063076697 -0.84200001
-0.12736276 0.062912725 -0.84233338
-0.12279446 0.063643306 -0.84200001
-0.11778712 0.063718371 -0.84157151
-0.11287148 0.064321697 -0.84100002
-0.13683394 0.066144571 -0.84500003
-0.13229996 0.066903025 -0.84500015
-0.12750188 0.067432739 -0.84450006
-0.12275471 0.067718178 -0.84380007
-0.11750432 0.067050681 -0.84366673
-0.11244569 0.067538537 -0.84344441
-0.10777747 0.067449175 -0.84233338
-0.10219973 0.067917228 -0.8418889
-0.097391471 0.067842744 -0.84185719
-0.092565119 0.068850964 -0.84100002
-0.088052593 0.068850964 -0.84100002
-0.11189699 0.07069537 -0.84500003
-0.10736301 0.07069537 -0.84500003
-0.10183176 0.070528045 -0.84300011
-0.09726388 0.071959935 -0.84425008
-0.092895322 0.071370177 -0.84400004
-0.087611929 0.071370162 -0.84399998
-0.082328543 0.071370177 -0.84400004
-0.077588402 0.071918108 -0.84375012
-0.072530404 0.072142579 -0.84416676
-0.067207374 0.072100356 -0.84366685
-0.062818691 0.072232351 -0.84299999
-0.057637308 0.07285732 -0.84242857
-0.05245227 0.072616719 -0.84214288
-0.047552712 0.072798058 -0.84300005
-0.042570014 0.072857335 -0.84242862
-0.037662752 0.073380232 -0.84100002
-0.030893968 0.074889988 -0.84100002
-0.029389793 0.074889988 -0.84100002
0.039802235 0.074889988 -0.84100002
-0.062778816 0.075246178 -0.84500003
-0.057127457 0.075845405 -0.84442866
-0.05215773 0.07594528 -0.84433335
-0.047665522 0.076004647 -0.84500015
-0.042364005 0.075982377 -0.84475005
-0.037056964 0.076703742 -0.84433347
-0.032509036 0.077168614 -0.84388894
-0.027967069 0.078137539 -0.84344453
-0.022648502 0.078003332 -0.84199995
-0.017159205 0.078421801 -0.84185719
-0.012854055 0.077972449 -0.8416667
-0.0075882743 0.078758806 -0.84200001
-0.0023174034 0.078758806 -0.84200001
0.0022004859 0.078758806 -0.84200001
0.0074713565 0.078758806 -0.84200001
0.012742228 0.078758806 -0.84200013
0.017260116 0.078758806 -0.84200013
0.022530988 0.078758806 -0.84200001
0.02780186 0.078758806 -0.84200013
0.032319747 0.078758806 -0.84200001
0.037882525 0.078286991 -0.84179991
0.041404642 0.078851447 -0.84300005
-0.028018249 0.081313923 -0.84500003
-0.022224825 0.081819564 -0.84500015
-0.01741831 0.08197616 -0.84400004
-0.012889691 0.08197616 -0.84400004
-0.0076123872 0.082048327 -0.84475005
-0.0026279264 0.081920691 -0.84500009
0.002208326 0.081313923 -0.84500003
0.0079513751 0.081617303 -0.84500009
0.012787628 0.082072385 -0.84500015
0.017301116 0.08197616 -0.84400004
0.022584505 0.081976153 -0.84399998
0.027867898 0.08197616 -0.84400004
0.032595031 0.082569063 -0.84425008
0.037717562 0.082814813 -0.84483349
0.12462595 0.088898599 -0.84500003
0.12700161 0.087519623 -0.84214288
0.131964 0.088079736 -0.84200013
0.13757358 0.088477783 -0.84100002
0.14208609 0.088477783 -0.84100002
0.14584655 0.089232653 -0.84100002
0.15411949 0.088477783 -0.84100002
0.15562367 0.088477783 -0.84100002
0.12462595 0.09041553 -0.84500003
0.12878211 0.091932468 -0.84500003
0.1326419 0.092432491 -0.84423089
0.1376559 0.092706032 -0.84414303
0.14242402 0.092473358 -0.84300005
0.14714314 0.093313925 -0.84240007
0.15303811 0.093566328 -0.84214288
0.15737696 0.093155697 -0.84233332
0.16224839 0.093034811 -0.84260005
0.16692135 0.09406089 -0.84271425
0.1721696 0.094516799 -0.84100002
0.17743421 0.094516799 -0.84100002
0.18269882 0.094516799 -0.84100002
0.18750696 0.094666645 -0.84233344
0.19247594 0.094516799 -0.84100002
0.19698846 0.094516799 -0.84100002
0.13293827 0.096483275 -0.84500003
0.13747224 0.096483275 -0.84500003
0.14276189 0.096483275 -0.84500003
0.14729589 0.096483275 -0.84500003
0.15303893 0.09678667 -0.84500009
0.15787518 0.097241752 -0.84500015
0.16240919 0.097241752 -0.84500015
0.16790602 0.097469196 -0.84477788
0.17276059 0.097872548 -0.843889
0.17738239 0.097924091 -0.84433347
0.18218563 0.097757183 -0.84420007
0.18743078 0.098075844 -0.84445471
0.19261743 0.09768831 -0.84359998
0.19745587 0.097770415 -0.84300005
0.20247988 0.097945303 -0.84320015
0.207509 0.09759625 -0.84280008
0.21273908 0.097907797 -0.84300011
0.2175532 0.098408967 -0.84200013
0.22246319 0.098284312 -0.84185719
0.22770289 0.098533638 -0.84214288
0.23228623 0.097783908 -0.84150004
0.23735051 0.098542809 -0.84100002
0.2428658 0.099046074 -0.84100002
0.24737835 0.099046074 -0.84100002
0.25264293 0.099046066 -0.84100002
0.25790757 0.099046074 -0.84100002
0.21757266 0.10103408 -0.84500003
0.22286233 0.10179256 -0.84500015
0.22739629 0.10179256 -0.84500015
0.23287736 0.10219981 -0.84460014
0.23766269 0.10241736 -0.84388894
0.24252453 0.1022794 -0.84400004
0.24722329 0.10201513 -0.84414285
0.25265712 0.10190091 -0.84500015
0.25762293 0.10179256 -0.84500015
0.26249903 0.10165004 -0.84471446
0.26770952 0.10247928 -0.84440011
0.27264938 0.10225586 -0.84380007
0.27756357 0.10238327 -0.84359998
0.28264362 0.1023109 -0.84299999
0.28766957 0.10247844 -0.84300005
0.29243153 0.10356895 -0.8434
0.29551193 0.10357533 -0.84100002
0.28331548 0.10558489 -0.84500003
0.28784949 0.10558489 -0.84500003
0.29238349 0.10558489 -0.84500003
0.29656902 0.10746643 -0.84245461
0.29789904 0.11183368 -0.84350002
0.30073795 0.12349513 -0.84300005
0.29994011 0.12758046 -0.84500003
0.30183756 0.12793392 -0.84233338
0.30604115 0.12924115 -0.84100002
0.30334646 0.13233228 -0.84466666
0.30750719 0.13261367 -0.84419996
0.31195733 0.13264748 -0.84344453
0.31744689 0.13273427 -0.84400022
0.32273522 0.13268581 -0.8428182
0.32743984 0.13291824 -0.84242857
0.33249199 0.13308898 -0.84214288
0.33765686 0.13330518 -0.84214294
0.34214133 0.13377044 -0.84100002
0.34740594 0.13377042 -0.84100002
0.35191846 0.13377042 -0.84100002
0.30397031 0.13642925 -0.84500003
0.30749676 0.13668209 -0.84500015
0.31190705 0.13662848 -0.84466666
0.31732041 0.13668208 -0.84500015
0.32290578 0.13694341 -0.84380007
0.32754618 0.13718912 -0.84344447
0.33247077 0.1371471 -0.84318197
0.33773783 0.13719434 -0.84263647
0.34268379 0.1370068 -0.84233338
0.3474493 0.13698511 -0.8422001
0.35198069 0.13703391 -0.84249997
0.35727772 0.13711524 -0.84299994
0.36207828 0.13693491 -0.8418889
0.36709616 0.13827772 -0.8418889
0.37222481 0.13829969 -0.84100002
0.37748945 0.13829969 -0.84100002
0.38124987 0.13829969 -0.84100002
0.38877073 0.13980944 -0.84100002
0.39027491 0.13980944 -0.84100002
0.32865536 0.14047442 -0.84500003
0.33243367 0.14047442 -0.84500003
0.33772334 0.14047442 -0.84500003
0.34255958 0.1410812 -0.84500009
0.34754694 0.14168797 -0.84500021
0.35293272 0.14151046 -0.84471434
0.35734761 0.14133939 -0.84450006
0.36255324 0.14200805 -0.84427291
0.36737499 0.14207652 -0.84324998
0.37254295 0.14170578 -0.84240001
0.37688002 0.14165528 -0.84300005
0.38191423 0.14165473 -0.84480011
0.38713846 0.14106666 -0.84400004
0.39247605 0.14236601 -0.84322226
0.39751494 0.14249554 -0.84200001
0.40197769 0.1442427 -0.84219998
0.40907711 0.14433871 -0.84100002
0.41283756 0.14433871 -0.84100002
0.41847047 0.14421871 -0.84250009
0.42272231 0.1436231 -0.84185725
0.42763329 0.14451034 -0.84200007
0.36492723 0.14502522 -0.84500003
0.36832774 0.14540446 -0.84500003
0.37248391 0.14578371 -0.84500015
0.37701786 0.14578371 -0.84500015
0.38230753 0.14502522 -0.84500003
0.38608584 0.14502522 -0.84500003
0.39263496 0.14654216 -0.84500003
0.39760971 0.14616294 -0.84500015
0.40342519 0.14677618 -0.84460014
0.40751636 0.14712721 -0.84400004
0.41243875 0.14726035 -0.84414297
0.41768944 0.14699408 -0.84385717
0.42277902 0.14718501 -0.84433341
0.42739227 0.1480387 -0.844091
0.43274009 0.14766765 -0.8435455
0.43747947 0.14790729 -0.84240001
0.44234329 0.14842373 -0.84133339
0.44592938 0.14886796 -0.84100002
0.42991439 0.15109296 -0.84500003
0.43293703 0.15109298 -0.84500003
0.43760547 0.15164092 -0.84442866
0.44238815 0.15230981 -0.84333342
0.44721133 0.15206917 -0.84200001
0.45133075 0.15225951 -0.84185719
0.44351634 0.15564378 -0.84500003
0.44744432 0.15602663 -0.84433335
0.45163932 0.15602952 -0.84380001
-0.16292106 0.052497014 -0.83814293
-0.15812019 0.052789073 -0.83766669
-0.15499972 0.053497747 -0.83700001
-0.16212279 0.055131745 -0.83900005
-0.1583713 0.055131745 -0.83900011
-0.15253718 0.056112681 -0.8375715
-0.14745182 0.057636086 -0.83785713
-0.14244503 0.058827858 -0.838
-0.13719921 0.058827858 -0.838
-0.13270277 0.058827858 -0.838
-0.12775713 0.059101984 -0.83833337
-0.12206528 0.059508048 -0.83700007
-0.13361143 0.0611564 -0.83900005
-0.12235694 0.061156403 -0.83900011
-0.11776271 0.061107807 -0.83833337
-0.11223367 0.06209572 -0.83811116
-0.10726567 0.062613964 -0.83833343
-0.10292295 0.063008063 -0.83785713
-0.097481653 0.063340515 -0.83800006
-0.083891258 0.064015768 -0.83700001
-0.10284918 0.065674894 -0.83900011
-0.096096486 0.065674894 -0.83900005
-0.092212923 0.066483945 -0.83780003
-0.087259546 0.066645272 -0.83700001
-0.082427643 0.067048199 -0.83733332
-0.077216111 0.067075491 -0.83766669
-0.072915837 0.067270137 -0.83775008
-0.067504585 0.067854069 -0.838
-0.062544011 0.067987956 -0.83780003
-0.057693399 0.068523489 -0.83700007
-0.053202331 0.068523489 -0.83700007
-0.060832448 0.070193388 -0.83900005
-0.057786494 0.070137613 -0.83833337
-0.052453823 0.070026062 -0.83700001
-0.047214251 0.070026062 -0.83700007
-0.044220209 0.070026062 -0.83700001
-0.037070341 0.071898244 -0.83780003
-0.032282576 0.072367184 -0.838
-0.027581992 0.072887912 -0.83749998
-0.022531351 0.073090568 -0.83766669
-0.017287606 0.073090576 -0.83766669
-0.012792966 0.073090576 -0.83766669
-0.0075432137 0.073782496 -0.83699995
-0.0023036427 0.07453379 -0.83700007
0.0021874188 0.07453379 -0.83700007
0.0074269897 0.07453379 -0.83700001
0.012666561 0.07453379 -0.83700007
0.017157622 0.073782504 -0.83700001
0.022397194 0.073782496 -0.83699995
0.027636765 0.073782504 -0.83700001
0.032341689 0.073460519 -0.83700001
0.036706388 0.073958799 -0.83900011
-0.018065419 0.076218046 -0.83900005
-0.0075612376 0.076218046 -0.83900005
-0.0023066697 0.076096922 -0.83766669
0.0021874188 0.076036364 -0.83700007
0.0074416418 0.076172628 -0.83850002
0.012696828 0.076218054 -0.83900011
0.01719862 0.076218054 -0.83900011
0.02245071 0.076218046 -0.83900005
0.027702805 0.076218054 -0.83900011
0.032204598 0.076218054 -0.83900011
0.035956088 0.076218046 -0.83900005
0.12494309 0.083549231 -0.83700001
0.12793712 0.082797945 -0.83700001
0.13205393 0.083173588 -0.83700001
0.12814212 0.085187301 -0.83833337
0.13298073 0.085816853 -0.8386001
0.13748719 0.085784405 -0.83785719
0.14267372 0.086028598 -0.83814293
0.14779097 0.087253474 -0.8384546
0.15225588 0.087195508 -0.83833337
0.15766437 0.087533228 -0.83814293
0.16240852 0.087469935 -0.8379091
0.16760816 0.089559525 -0.83700001
0.17284775 0.089559525 -0.83700007
0.17733881 0.089559525 -0.83700007
0.18257837 0.089559525 -0.83700001
0.18781793 0.089559525 -0.83700007
0.19230899 0.089559525 -0.83700007
0.1477506 0.0912797 -0.83900011
0.15150209 0.091279693 -0.83900005
0.16799711 0.091493897 -0.83820003
0.17265502 0.09204711 -0.83814299
0.17755067 0.091923982 -0.838
0.18244378 0.091800854 -0.83785719
0.18764566 0.092047118 -0.83814293
0.19253878 0.091923982 -0.83800006
0.19773622 0.092113376 -0.83744442
0.20268185 0.092804857 -0.83780015
0.2074443 0.09263961 -0.83766675
0.21245265 0.092489399 -0.83754539
0.21748979 0.09299849 -0.8378889
0.22224939 0.093315974 -0.83700001
0.22798799 0.093566403 -0.83700001
0.23272854 0.094067261 -0.83700007
0.23721963 0.094067261 -0.83700007
0.24245919 0.094067253 -0.83700001
0.24769877 0.094067261 -0.83700007
0.25218982 0.094067261 -0.83700007
0.25593239 0.094067253 -0.83700001
0.21752839 0.095798187 -0.83900005
0.22278047 0.095798187 -0.83900011
0.22728226 0.095798187 -0.83900011
0.23403496 0.095798187 -0.83900005
0.23778646 0.096400648 -0.83900005
0.24209633 0.096475147 -0.83833337
0.24731839 0.096465632 -0.8382501
0.25279245 0.096551269 -0.83900011
0.25758535 0.096957162 -0.83785713
0.26266897 0.097823694 -0.83700001
0.26716006 0.097823694 -0.83700001
0.27239957 0.097823694 -0.83699995
0.27763918 0.097072408 -0.83699995
0.28213024 0.097072408 -0.83699995
0.28707042 0.097372927 -0.83700001
0.29186088 0.098574974 -0.83700001
0.28880677 0.10031668 -0.83900005
0.29277942 0.10092803 -0.83871442
0.29709035 0.10276908 -0.83749998
0.29745537 0.10696588 -0.83800006
0.3005935 0.12361788 -0.83700007
0.30308855 0.12637261 -0.83700001
0.30772114 0.12820984 -0.83820003
0.3124449 0.12825081 -0.83700001
0.31675476 0.12848133 -0.83850002
0.32218397 0.12878014 -0.83800006
0.32704085 0.12862645 -0.83700007
0.3322804 0.12862645 -0.83700001
0.33752 0.12862645 -0.83700007
0.34201106 0.12862645 -0.83700007
0.34575361 0.12862645 -0.83700001
0.3278223 0.13043998 -0.83900011
0.33232409 0.13043998 -0.83900011
0.33802637 0.13074122 -0.83900005
0.34241968 0.13103759 -0.838
0.34756109 0.13099828 -0.83774996
0.35288835 0.13152333 -0.83750004
0.35775828 0.13158178 -0.83754551
0.36277938 0.13232844 -0.83759993
0.36715707 0.13403876 -0.83728576
0.37120295 0.13463676 -0.83700001
0.36883864 0.13746876 -0.83900011
0.37314343 0.13630199 -0.838
0.37793955 0.13613933 -0.83700007
0.38288748 0.13705507 -0.838
0.38801688 0.13701396 -0.83775002
0.39261818 0.13804969 -0.83744442
0.39702654 0.13876884 -0.83700001
0.41761059 0.13914448 -0.83700001
0.42285013 0.13914448 -0.83700007
0.39862412 0.14081509 -0.83800006
0.402711 0.14226346 -0.83766669
0.40747461 0.14191777 -0.83740008
0.4125053 0.14169978 -0.83814293
0.41723487 0.14127566 -0.83850002
0.42260414 0.14081509 -0.838
0.42735013 0.14208107 -0.83785719
0.43296775 0.14302963 -0.83774996
0.43752095 0.14305118 -0.83700001
0.44231141 0.1436522 -0.83700007
0.44680247 0.1436522 -0.83700007
0.43811622 0.14550163 -0.83900005
0.44258976 0.14583026 -0.83800006
0.44751421 0.14689218 -0.83833343
-0.16508345 0.048872966 -0.83500004
-0.16280635 0.048638843 -0.83100003
-0.15760432 0.048638843 -0.83100003
-0.15240233 0.048638843 -0.83100003
-0.14794347 0.048638843 -0.83100003
-0.14497088 0.048638843 -0.83100003
-0.38612127 0.05162245 -0.83100003
-0.38426343 0.05236835 -0.83100003
-0.16134983 0.050371949 -0.83500004
-0.15761623 0.050371952 -0.83500004
-0.15213314 0.052085556 -0.83360004
-0.1474632 0.052468862 -0.83346158
-0.14268392 0.052677684 -0.83263654
-0.13776012 0.053200673 -0.83233339
-0.13249665 0.053925864 -0.83200008
-0.12723622 0.054649867 -0.83166671
-0.12277615 0.054649867 -0.83166671
-0.11970396 0.054606058 -0.83100003
-0.11078622 0.054606058 -0.83100003
-0.10821398 0.054061186 -0.8318001
-0.14268181 0.056367885 -0.83500004
-0.13745475 0.056367885 -0.83500004
-0.1322277 0.056367885 -0.83500004
-0.12774737 0.056742631 -0.83500004
-0.12279869 0.057205163 -0.83471435
-0.1173953 0.057621744 -0.83360016
-0.11254273 0.057730664 -0.83300006
-0.10747718 0.057810318 -0.83416671
-0.1027322 0.058991108 -0.83500004
-0.097878508 0.059365854 -0.83500004
-0.093941614 0.058584195 -0.83100003
-0.085519314 0.059081461 -0.83100003
-0.082546733 0.059081461 -0.83100003
-0.078087866 0.059081461 -0.83100003
-0.10161211 0.060864836 -0.83500004
-0.097878508 0.060864836 -0.83500004
-0.092278667 0.062282834 -0.83388889
-0.087574713 0.062111881 -0.83359998
-0.082645588 0.061873063 -0.83414298
-0.077562787 0.062241435 -0.83333343
-0.072502576 0.062403612 -0.83300006
-0.067902237 0.063760832 -0.83366674
-0.062632211 0.06370984 -0.83300006
-0.057279825 0.063556872 -0.83100003
-0.053564101 0.063556872 -0.83100003
-0.09190473 0.06536179 -0.83500004
-0.088171124 0.06536179 -0.83500004
-0.07099653 0.06536179 -0.83500004
-0.067262918 0.06536179 -0.83500004
-0.061626256 0.065697402 -0.83450007
-0.057486609 0.066033013 -0.83400011
-0.052249476 0.066388175 -0.83375007
-0.047274593 0.066537589 -0.83280003
-0.042563599 0.067771927 -0.83388895
-0.037523936 0.068364009 -0.83336371
-0.032379508 0.068032622 -0.83280003
-0.027620357 0.06819842 -0.833
-0.022405826 0.068198413 -0.83300006
-0.017191295 0.06819842 -0.83300006
-0.012721696 0.068198413 -0.83300006
-0.0074981526 0.068861842 -0.83199996
-0.002289881 0.068861842 -0.83200002
0.0021743518 0.06886185 -0.83200014
0.0070620989 0.068956457 -0.83185726
0.012575762 0.069524094 -0.83100003
0.017034629 0.069524094 -0.83100003
0.021493495 0.069524094 -0.83100003
0.033383809 0.069524087 -0.83100003
-0.0075251888 0.071357727 -0.83500004
-0.0022981379 0.072107226 -0.83500004
0.0021821917 0.072107218 -0.83500004
0.0074092429 0.072107218 -0.83500004
0.012636296 0.072107218 -0.83500004
0.017116625 0.071357727 -0.83500004
0.022343677 0.071357727 -0.83500004
0.027570728 0.071357727 -0.83500004
0.031304333 0.071357727 -0.83500004
0.12300736 0.078522123 -0.83150005
0.1275924 0.077002831 -0.83280003
0.13262607 0.077238262 -0.83227283
0.13747858 0.07776048 -0.83133334
0.14262605 0.077729002 -0.83099997
0.14782807 0.077729002 -0.83100003
0.15228693 0.079220802 -0.83100003
0.15748894 0.079966709 -0.83100003
0.16269097 0.079966709 -0.83100003
0.16714983 0.079966709 -0.83100003
0.17086554 0.079966709 -0.83100003
0.17755383 0.079966709 -0.83100003
0.18275584 0.079966709 -0.83100003
0.18795787 0.079966709 -0.83100003
0.19241673 0.079966709 -0.83100003
0.12344978 0.081251018 -0.83500004
0.12763143 0.080351636 -0.83500004
0.13275121 0.080787145 -0.83433342
0.13745226 0.081934392 -0.83445466
0.14245203 0.081786461 -0.83433336
0.1472033 0.081623726 -0.83420008
0.15220028 0.082111917 -0.83460009
0.15737395 0.082534753 -0.83433342
0.16275913 0.082740612 -0.83388901
0.16764112 0.08319591 -0.83344448
0.1722618 0.083004773 -0.83154553
0.17764008 0.083129995 -0.83280009
0.18257281 0.083070092 -0.83220005
0.18752961 0.0832396 -0.83240002
0.19264828 0.083797835 -0.83200014
0.19761875 0.084442116 -0.83100003
0.20282075 0.084442124 -0.83100003
0.20727962 0.084442124 -0.83100003
0.21099535 0.084442116 -0.83100003
0.16433798 0.086778283 -0.83433342
0.16775326 0.08699365 -0.83400011
0.1722282 0.08699365 -0.83400005
0.177449 0.086993635 -0.83400005
0.18281642 0.08706259 -0.83466673
0.18736915 0.087097064 -0.83500004
0.19279325 0.087323904 -0.83477783
0.1976653 0.0877776 -0.83433342
0.20249195 0.087558888 -0.83354557
0.20752969 0.087809227 -0.83319998
0.21249437 0.087468058 -0.83280009
0.21746154 0.087638281 -0.83300012
0.22227119 0.087745383 -0.83260006
0.22738943 0.087386727 -0.83190912
0.23244071 0.088400476 -0.83214301
0.23796244 0.08787892 -0.83174998
0.24242534 0.087692447 -0.83174998
0.24722981 0.088661961 -0.83140004
0.2514967 0.08854457 -0.83100003
0.21873146 0.090844512 -0.83500004
0.2229131 0.091144316 -0.83500004
0.22731876 0.091219261 -0.83500004
0.23217246 0.091594003 -0.83500004
0.23739952 0.091594003 -0.83500004
0.24262655 0.091594011 -0.83500004
0.24690902 0.091521487 -0.83433342
0.25218195 0.091539606 -0.83450007
0.25768793 0.091825038 -0.833
0.26240575 0.092124708 -0.833
0.26737183 0.092124939 -0.83300006
0.2726526 0.092146233 -0.8332001
0.27770361 0.092340015 -0.83360004
0.28250131 0.091953181 -0.83280003
0.28732589 0.092597 -0.83277786
0.29247946 0.093219221 -0.83166671
0.25830773 0.095341466 -0.83500004
0.26204133 0.095341466 -0.83500004
0.26726836 0.095341466 -0.83500004
0.27249545 0.095341466 -0.83500004
0.2881766 0.095341466 -0.83500004
0.29294649 0.096463129 -0.83409095
0.29672834 0.098954014 -0.83260006
0.29880232 0.10233953 -0.83340007
0.29865113 0.10732745 -0.83350003
0.30015019 0.11006704 -0.83300006
0.29937741 0.11857571 -0.83500004
0.30122468 0.11802207 -0.83185714
0.29937741 0.12082418 -0.83500004
0.30252841 0.12179078 -0.83340007
0.30730325 0.12245255 -0.83179998
0.31250888 0.12263227 -0.83100003
0.31712046 0.12269159 -0.83140004
0.322467 0.12285604 -0.83100003
0.32781506 0.12288003 -0.83200002
0.33198979 0.12269159 -0.83140004
0.33732989 0.1247208 -0.83100003
0.34253192 0.1247208 -0.83100003
0.34773389 0.1247208 -0.83100003
0.35219279 0.1247208 -0.83100003
0.30808914 0.12582082 -0.83500004
0.31244504 0.12569588 -0.83500004
0.31761584 0.12592068 -0.83471435
0.32251397 0.12604904 -0.83414292
0.32736033 0.12592055 -0.83400011
0.33243096 0.1258778 -0.83442867
0.33685267 0.12659231 -0.83350003
0.34261137 0.12651637 -0.83300006
0.34786126 0.12723747 -0.83380014
0.35239899 0.12730381 -0.83325005
0.3572337 0.1274765 -0.83340007
0.36264902 0.12849596 -0.83420008
0.3673017 0.12879921 -0.83325005
0.37221554 0.12869014 -0.83185726
0.37768635 0.12927395 -0.83150005
0.36777711 0.13161686 -0.83500004
0.37274283 0.13262868 -0.83500004
0.37703648 0.13281605 -0.83500004
0.3821103 0.13276364 -0.83466673
0.38723055 0.13247745 -0.83380002
0.39228532 0.13282962 -0.83336371
0.39778131 0.13326207 -0.83242869
0.40272662 0.13367161 -0.83100003
0.40792865 0.13367161 -0.83100003
0.41288397 0.13313924 -0.83140004
0.41734353 0.13343759 -0.83140004
0.42130521 0.13367161 -0.83100003
0.39421105 0.13581403 -0.83500004
0.39838466 0.13671023 -0.83475006
0.40260035 0.13720459 -0.83433336
0.40758893 0.13736056 -0.83445454
0.41232157 0.13700366 -0.83425009
0.41735941 0.13656351 -0.83500004
0.42267543 0.13655077 -0.83400005
0.4275451 0.13748311 -0.83375007
0.43238449 0.13757956 -0.83271432
0.4372777 0.13779269 -0.83271438
0.44232607 0.13836929 -0.83233345
0.44562146 0.13906097 -0.83200002
0.40242499 0.14031097 -0.83500004
0.40541187 0.14031097 -0.83500004
0.42856026 0.14031097 -0.83500004
0.43229386 0.14031097 -0.83500004
0.43801874 0.14081065 -0.83500004
0.44274801 0.14106047 -0.83500004
0.44648156 0.14180996 -0.83500004
-0.38001338 0.043844566 -0.82500005
-0.16163085 0.043844566 -0.82500005
-0.15720418 0.043844566 -0.82500005
-0.15216139 0.043386318 -0.82566679
-0.14744945 0.043043815 -0.82585728
-0.1429047 0.043500882 -0.82550007
-0.13949747 0.043844566 -0.82500005
-0.37779766 0.048175532 -0.82588893
-0.37411115 0.049768694 -0.82500005
-0.16605751 0.045325596 -0.82500005
-0.16251455 0.046426024 -0.82700008
-0.15732446 0.046332467 -0.82785726
-0.15224855 0.046120379 -0.82785726
-0.14740936 0.046234526 -0.82800007
-0.14249192 0.046984337 -0.82811117
-0.13732499 0.046755176 -0.82645452
-0.13233322 0.048613738 -0.8263334
-0.12744731 0.049202908 -0.82614291
-0.12400412 0.049028177 -0.82500005
-0.117069 0.049176276 -0.82499999
-0.11273832 0.048918009 -0.82625014
-0.091651917 0.049829021 -0.82600003
-0.089328513 0.049768694 -0.82500005
-0.38185588 0.0507541 -0.82900006
-0.37620139 0.052561667 -0.82700008
-0.37342858 0.052774563 -0.82566679
-0.14091519 0.050009996 -0.82900006
-0.1372084 0.050009996 -0.82900012
-0.13313094 0.051126152 -0.82900006
-0.12725306 0.052136015 -0.82900012
-0.12223367 0.052180193 -0.82800007
-0.11764111 0.052753799 -0.82825005
-0.11287118 0.052817244 -0.82845467
-0.10903688 0.051498208 -0.82900006
-0.09176378 0.052859783 -0.82700008
-0.087663971 0.052944213 -0.82599992
-0.082748108 0.052770186 -0.82559997
-0.07789506 0.053671945 -0.82580006
-0.072359599 0.054211788 -0.82500005
-0.067195147 0.054211788 -0.82500005
-0.37255287 0.056322709 -0.82700002
-0.36769295 0.056467988 -0.82550001
-0.36260137 0.057006497 -0.82525003
-0.35935557 0.055692822 -0.82500005
-0.092232823 0.056954991 -0.82900012
-0.087682642 0.057278953 -0.82845455
-0.082314357 0.056684449 -0.82866669
-0.077837884 0.056661949 -0.82833338
-0.072651967 0.057406064 -0.82833332
-0.067412354 0.057359856 -0.8276667
-0.063110724 0.057717863 -0.82671434
-0.058075696 0.058387119 -0.82540005
-0.31620944 0.061692536 -0.82600009
-0.31259176 0.063190483 -0.82620013
-0.30882362 0.064657293 -0.82600003
-0.070486367 0.060427483 -0.82900006
-0.067520946 0.061171591 -0.82900012
-0.062649183 0.061277896 -0.82900012
-0.0574858 0.060981981 -0.82785726
-0.052355912 0.061343685 -0.82700002
-0.047389731 0.061768722 -0.82700008
-0.042078298 0.062308799 -0.82700002
-0.037790287 0.062536821 -0.82733339
-0.032618091 0.062549569 -0.8275001
-0.027437991 0.062549576 -0.8275001
-0.022409929 0.062710479 -0.8276667
-0.017466465 0.062700115 -0.82681823
-0.012818327 0.063457891 -0.82725006
-0.0074621039 0.064071529 -0.82800007
-0.0022788721 0.064071536 -0.82800007
0.0021638982 0.064071536 -0.82800001
0.0075389813 0.063387871 -0.82700002
0.01250514 0.063201167 -0.8263334
0.017479321 0.063345179 -0.82645452
0.022841519 0.06391678 -0.82600009
0.026871648 0.064208753 -0.82500005
0.030191652 0.063838497 -0.82500005
-0.31166637 0.067760594 -0.82766676
-0.3081263 0.067632832 -0.8261112
-0.30426809 0.068528436 -0.82500005
-0.0074711163 0.066380337 -0.82900006
-0.0022816244 0.066380337 -0.82900012
0.0021665115 0.066380337 -0.82900012
0.0078008161 0.06667798 -0.82900012
0.012545494 0.067124441 -0.82900012
0.017734984 0.067124434 -0.82900006
0.023119982 0.067397587 -0.82842869
0.027350601 0.067815162 -0.82833332
0.031042203 0.067787878 -0.82800001
0.11872511 0.074205726 -0.82500005
0.12262867 0.072227098 -0.82588893
0.12780771 0.07243073 -0.82840008
0.1325385 0.07227622 -0.82833338
0.13725685 0.07211601 -0.82820004
0.1423592 0.072406009 -0.82827282
0.14741126 0.07201238 -0.82700008
0.15187128 0.07295718 -0.82642865
0.15708962 0.073465213 -0.82500005
0.16277647 0.073204614 -0.82540005
0.16762146 0.072813734 -0.82600009
0.1720535 0.072813734 -0.82600009
0.17722243 0.073554255 -0.82600009
0.18217412 0.07494624 -0.82500005
0.18733856 0.074575983 -0.82500005
0.19250302 0.07494624 -0.82500005
0.19766745 0.07494624 -0.82500005
0.20283191 0.07494624 -0.82500005
0.2065208 0.07494624 -0.82500005
0.12157708 0.076178834 -0.8276667
0.13709331 0.075309619 -0.82900012
0.1422828 0.075309612 -0.82900006
0.14747229 0.075309619 -0.82900012
0.15279636 0.076629505 -0.82863647
0.15772434 0.076737262 -0.82833338
0.16216888 0.07673727 -0.82833338
0.16748892 0.076797836 -0.82900017
0.17269957 0.07728944 -0.82845467
0.17747015 0.076579615 -0.82809097
0.18250808 0.077595294 -0.82842869
0.18716444 0.077170603 -0.82842863
0.19278656 0.077728204 -0.82833338
0.19756623 0.078160129 -0.8276667
0.20251545 0.078148678 -0.82754552
0.20721178 0.078076184 -0.82677788
0.21210687 0.078119889 -0.82499999
0.21758747 0.079389334 -0.82500005
0.22302194 0.079485565 -0.82600003
0.2279164 0.079389334 -0.82500005
0.23234308 0.079389334 -0.82500005
0.23676972 0.079389334 -0.82500005
0.18898821 0.081262462 -0.82900006
0.19313982 0.081560105 -0.82900012
0.19788449 0.082006574 -0.82900012
0.20233262 0.082006574 -0.82900012
0.20745887 0.081982061 -0.82875007
0.21270448 0.08249113 -0.82824999
0.21745948 0.082525946 -0.82809103
0.22257912 0.082820728 -0.82820004
0.22777686 0.082507797 -0.82790923
0.23283508 0.082780793 -0.8278001
0.23753503 0.082618766 -0.8276667
0.242318 0.082418032 -0.82700014
0.24735859 0.083429463 -0.82728583
0.25277647 0.083361961 -0.82620013
0.25759646 0.083474241 -0.82633346
0.26254785 0.083284795 -0.82585722
0.26775643 0.083832428 -0.82500005
0.27218312 0.083832428 -0.82500005
0.27734756 0.083832428 -0.82500005
0.28177422 0.083832428 -0.82500005
0.23272821 0.085727096 -0.82900006
0.23717633 0.085727096 -0.82900006
0.24384853 0.085727096 -0.82900006
0.2470611 0.08622317 -0.82900012
0.25295663 0.086790115 -0.82900012
0.25724056 0.086983763 -0.82820004
0.2624115 0.087294199 -0.82845455
0.26760957 0.086983763 -0.82820004
0.27278367 0.087294199 -0.82845467
0.27772737 0.087146372 -0.82833338
0.28256464 0.086966887 -0.82790917
0.287633 0.0870075 -0.82700002
0.29232731 0.087100923 -0.82633334
0.29609835 0.088791423 -0.82585722
0.2883299 0.090191744 -0.82900012
0.29327226 0.091183871 -0.82900012
0.29716238 0.093204588 -0.82800007
0.29797 0.096961863 -0.82871443
0.29885244 0.10230496 -0.82666671
0.29927772 0.10711067 -0.8275001
0.30046129 0.10761702 -0.82566679
0.3019889 0.11255939 -0.8275001
0.3075965 0.11419359 -0.82500005
0.31276095 0.1149341 -0.82500005
0.31644982 0.1149341 -0.82500005
0.30297169 0.11642148 -0.82900006
0.30754703 0.11755873 -0.8282308
0.31234083 0.11829738 -0.8278001
0.31728476 0.11820959 -0.82718182
0.32245359 0.11826628 -0.82663631
0.3277868 0.11800744 -0.82679999
0.33258554 0.11842318 -0.82660002
0.33751628 0.11878137 -0.82600009
0.34231079 0.11865491 -0.82585728
0.34749526 0.11890783 -0.82614303
0.35190856 0.11890054 -0.82580006
0.31353599 0.12144421 -0.82900006
0.31872547 0.12144421 -0.82900006
0.32169092 0.12144421 -0.82900006
0.3253977 0.12144421 -0.82900006
0.33379972 0.12194028 -0.82900012
0.33725941 0.12218832 -0.82900012
0.34244886 0.12218832 -0.82900006
0.34763837 0.12218832 -0.82900012
0.35253546 0.12233772 -0.82875001
0.35697672 0.12266235 -0.82716668
0.36213288 0.12263697 -0.82609093
0.36718056 0.12242931 -0.82559997
0.37261447 0.12335709 -0.82614303
0.37749761 0.12342667 -0.82566679
0.38284993 0.12382029 -0.82500005
0.38580105 0.12382028 -0.82500005
0.35875869 0.12590885 -0.82900006
0.36254829 0.12568101 -0.8275001
0.367805 0.12570634 -0.8276667
0.37337217 0.12608498 -0.82820004
0.3779735 0.12638627 -0.82725012
0.38244197 0.12752406 -0.8276667
0.38735828 0.12698433 -0.82718182
0.39240822 0.12691303 -0.82679999
0.39723599 0.12724033 -0.82700008
0.40222025 0.12732591 -0.82660007
0.40730345 0.12747049 -0.8267144
0.4126212 0.12783204 -0.82700008
0.41793054 0.12763815 -0.82642871
0.42221236 0.12809156 -0.82580006
0.42741176 0.12885581 -0.82499999
0.43183848 0.12944821 -0.82499999
0.43670779 0.12974441 -0.82500005
0.39286107 0.13037349 -0.82900006
0.39775401 0.13067113 -0.82900012
0.40250465 0.13087648 -0.82814294
0.40800598 0.1312239 -0.82900012
0.41287768 0.13037351 -0.82900012
0.41732582 0.1311176 -0.82900012
0.42225301 0.13158278 -0.82809103
0.42733151 0.132557 -0.8276155
0.43264905 0.13294552 -0.82740003
0.43764147 0.13327742 -0.82700002
0.44149095 0.13281491 -0.82566679
0.44253194 0.13632634 -0.82900012
-0.1681892 0.039210431 -0.82100004
-0.15130255 0.039210431 -0.82100004
-0.14616314 0.039210431 -0.82100004
-0.14469473 0.039210431 -0.82100004
-0.38056412 0.041522112 -0.82300001
-0.37743619 0.042076156 -0.82300001
-0.37318325 0.042174652 -0.82133335
-0.17129755 0.042507075 -0.82300007
-0.16725886 0.042073082 -0.8222
-0.1625133 0.041964442 -0.82200003
-0.15770963 0.04158517 -0.8221429
-0.15299259 0.040999591 -0.82140011
-0.14763154 0.040684283 -0.82100004
-0.14211717 0.041209798 -0.82166672
-0.13752002 0.042456321 -0.82200003
-0.13275735 0.043158412 -0.82133341
-0.12780809 0.043631986 -0.82100004
-0.11385827 0.043631986 -0.82100004
-0.37614819 0.045215715 -0.82300001
-0.37257561 0.04682029 -0.82233334
-0.36936048 0.048790466 -0.82100004
-0.36275268 0.049527392 -0.82100004
-0.35908166 0.049527392 -0.82100004
-0.35467646 0.049527392 -0.82100004
-0.13144165 0.045784719 -0.82260001
-0.1271777 0.045880586 -0.82166672
-0.12222876 0.047545642 -0.82175004
-0.11756529 0.046594322 -0.82125008
-0.11385827 0.045842763 -0.82100004
-0.091888145 0.04624049 -0.82150006
-0.087323323 0.047914103 -0.82174999
-0.082599752 0.048585042 -0.82166672
-0.077515289 0.049158927 -0.82100004
-0.37099624 0.052602924 -0.82300001
-0.36750138 0.052489698 -0.82122225
-0.36279291 0.052376948 -0.82154554
-0.35800007 0.052533105 -0.82188892
-0.08028008 0.051125482 -0.82300001
-0.076922037 0.051463783 -0.82249999
-0.072831579 0.051802084 -0.82200003
-0.068121374 0.05200512 -0.82133335
-0.062516063 0.053992748 -0.82166672
-0.058793139 0.053948943 -0.82100004
-0.31502956 0.058370497 -0.82100004
-0.31209275 0.059844352 -0.82100004
-0.30768752 0.059844352 -0.82100004
-0.30254814 0.059844349 -0.82100004
-0.29722518 0.058554728 -0.82100004
-0.29202458 0.058861781 -0.82100004
-0.28748873 0.058591176 -0.82150006
-0.28272468 0.059107423 -0.82100004
-0.27929842 0.059353065 -0.82100004
-0.061880328 0.055557806 -0.82300001
-0.057051003 0.056093529 -0.82157153
-0.052030034 0.057378691 -0.82185721
-0.048007313 0.057134196 -0.82175004
-0.042680323 0.057686899 -0.82175004
-0.037531149 0.057680972 -0.82166672
-0.032190308 0.05708234 -0.82172734
-0.027244573 0.056944046 -0.82166672
-0.023043418 0.057358373 -0.82157153
-0.01760504 0.058239136 -0.82144451
-0.012538431 0.059107423 -0.82100004
-0.0073990179 0.059844349 -0.82100004
0.01315863 0.059844349 -0.82100004
0.01756384 0.059844349 -0.82100004
0.022703253 0.059844352 -0.82100004
0.025640059 0.059844349 -0.82100004
-0.31138104 0.061467573 -0.82300001
-0.30717203 0.062480215 -0.82242858
-0.30247521 0.062722228 -0.82200003
-0.29813319 0.062945023 -0.82300001
-0.29232821 0.062804505 -0.82116669
-0.28782937 0.062945023 -0.82300001
-0.28272465 0.062792048 -0.82100004
-0.2775853 0.062792063 -0.82100004
-0.27318007 0.062792048 -0.82100004
-0.011096993 0.061467573 -0.82300001
-0.0074098189 0.061392888 -0.82200003
-0.0022602489 0.061367989 -0.82166672
0.002150831 0.061467573 -0.82300007
0.0050947922 0.061467573 -0.82300001
0.019814597 0.061467573 -0.82300001
0.022758558 0.061467573 -0.82300007
0.027441768 0.061998803 -0.8222
0.030118462 0.061467573 -0.82300001
-0.30225477 0.066490866 -0.82300007
-0.29850119 0.066269256 -0.82300001
-0.28709334 0.065899894 -0.82300001
-0.28261381 0.066815898 -0.82128584
-0.27738506 0.067079611 -0.82100004
-0.27265564 0.066792503 -0.82100004
-0.26877484 0.067213602 -0.82100004
0.11726844 0.068392687 -0.82100004
0.12255469 0.068687454 -0.82100004
0.12737945 0.067845255 -0.82100004
0.13259785 0.068151422 -0.8221429
0.1374059 0.068034194 -0.82200003
0.14250754 0.068013273 -0.82175004
0.14722387 0.068097912 -0.82100004
0.15265697 0.068687454 -0.82100004
0.11688584 0.071669698 -0.82140011
0.12138126 0.070332222 -0.82300001
0.15266085 0.070701584 -0.82300001
0.15734822 0.071028218 -0.82250005
0.16206525 0.070820652 -0.82180005
0.16764539 0.070289493 -0.82249999
0.17295344 0.07057339 -0.8215
0.1777271 0.070941858 -0.82150006
0.18255775 0.071886174 -0.82175004
0.18731642 0.071694531 -0.82166672
0.19246003 0.071694523 -0.82166672
0.19760358 0.071694523 -0.82166672
0.20251656 0.071549743 -0.82154554
0.20763847 0.072504491 -0.82172734
0.21232109 0.073361374 -0.82175004
0.21691386 0.073545605 -0.82175004
0.22194104 0.073936775 -0.82200003
0.22754553 0.073109008 -0.82100004
0.23268496 0.073109016 -0.82100004
0.11824542 0.077592328 -0.82166672
0.20896411 0.077719428 -0.82300001
0.21288195 0.077303745 -0.82249999
0.21717814 0.076769315 -0.82185721
0.22229519 0.077006839 -0.8221429
0.22746769 0.076769307 -0.82185721
0.23258832 0.077006839 -0.8221429
0.23763046 0.077217907 -0.8221429
0.24242535 0.077594422 -0.82166672
0.2471592 0.077951662 -0.82100004
0.25299788 0.078513131 -0.82100004
0.25735411 0.078414872 -0.82100004
0.2613188 0.079004414 -0.82100004
0.24767719 0.080969803 -0.82300007
0.25171375 0.080945648 -0.82200003
0.25709787 0.080969803 -0.82300007
0.26318941 0.080852173 -0.82180005
0.267517 0.081315011 -0.82200003
0.27219611 0.081406035 -0.82185721
0.27744552 0.081195489 -0.82185721
0.28267661 0.081855692 -0.82166672
0.28774053 0.081873558 -0.82154554
0.29263666 0.082347371 -0.82166672
0.29656047 0.083425969 -0.82100004
0.29360297 0.085106634 -0.82300001
0.2969169 0.086795256 -0.82266665
0.2987549 0.092493847 -0.82300001
0.29861099 0.097716264 -0.8222
0.29900569 0.10267054 -0.82166672
0.30059859 0.10295449 -0.82100004
0.30236021 0.10767604 -0.82160008
0.30610511 0.10995529 -0.82100004
0.30372131 0.11089401 -0.82250005
0.30782267 0.11225774 -0.82166672
0.31301248 0.11236846 -0.82140011
0.31770539 0.11286227 -0.82188892
0.32227716 0.11316182 -0.82180005
0.32741377 0.11284499 -0.82154554
0.33231574 0.1133234 -0.82166666
0.33767575 0.11363992 -0.82100004
0.34281522 0.11437684 -0.82100004
0.34722042 0.11437684 -0.82100004
0.35089141 0.11437684 -0.82100004
0.33408242 0.11613291 -0.82300001
0.33776242 0.11613291 -0.82300007
0.34217834 0.11613291 -0.82300007
0.34733027 0.11613291 -0.82300001
0.35304904 0.11687948 -0.82175004
0.35755318 0.1175877 -0.82180005
0.36263865 0.11732455 -0.82100004
0.36777806 0.11732454 -0.82100004
0.37218329 0.11732454 -0.82100004
0.37560958 0.11830711 -0.82100004
0.36867398 0.12056524 -0.82300001
0.37235394 0.12056524 -0.82300001
0.3779 0.12098864 -0.82157153
0.38246211 0.12100917 -0.82100004
0.3876583 0.12169398 -0.82154554
0.39256921 0.12184616 -0.82166672
0.39714167 0.12198355 -0.82160008
0.4023343 0.12298594 -0.82139999
0.40764055 0.12377125 -0.82185721
0.41281426 0.12476975 -0.82150006
0.41696957 0.1246938 -0.82100004
0.42313728 0.12647501 -0.82300007
0.42776701 0.12632133 -0.82200003
0.43256918 0.12718755 -0.8221429
0.43766865 0.12798634 -0.82185721
0.44080102 0.12942989 -0.82300001
-0.16716489 0.033845469 -0.81600004
-0.16404471 0.034534633 -0.81500006
-0.16757461 0.036865354 -0.81800002
-0.16252689 0.037704732 -0.81736368
-0.15743218 0.037408572 -0.81700009
-0.15263566 0.037401967 -0.8172223
-0.1474389 0.037239406 -0.81722236
-0.14238949 0.037383128 -0.81725007
-0.1376134 0.037688013 -0.81700009
-0.1325312 0.037919756 -0.81585723
-0.12770788 0.038224176 -0.81566668
-0.12250105 0.038923874 -0.81500006
-0.11448385 0.038923874 -0.81500006
-0.36786783 0.042953711 -0.81827277
-0.36270118 0.043590352 -0.81675005
-0.3579742 0.043942302 -0.81580001
-0.35435274 0.044256892 -0.81620008
-0.16338499 0.040585171 -0.81900007
-0.13628571 0.040585171 -0.81900007
-0.13217737 0.040927961 -0.81850004
-0.12737933 0.041650701 -0.81825006
-0.12239173 0.042389967 -0.81833339
-0.11745978 0.042559378 -0.81776947
-0.11388189 0.041009188 -0.81766671
-0.092846051 0.043419406 -0.81700003
-0.087448984 0.044064708 -0.81728584
-0.082869105 0.044278868 -0.81660002
-0.077456847 0.044858605 -0.81650007
-0.073669024 0.044776194 -0.81500006
-0.36657736 0.047726441 -0.81900012
-0.3626014 0.047201347 -0.81900012
-0.35709447 0.047631081 -0.81880015
-0.35308003 0.047201347 -0.81900007
-0.32293096 0.049165435 -0.81500006
-0.3156426 0.049165435 -0.81500006
-0.31272727 0.049165439 -0.81500006
-0.3074432 0.048251007 -0.81500006
-0.30398121 0.049165435 -0.81500006
-0.082087137 0.046466216 -0.81900007
-0.077173658 0.046937391 -0.81866682
-0.072487406 0.047886048 -0.81811124
-0.067879453 0.048173353 -0.81744456
-0.062489346 0.048381098 -0.81585723
-0.057983458 0.048628464 -0.81580001
-0.052532781 0.049165435 -0.81500006
-0.047430933 0.049165439 -0.81500006
-0.044515584 0.049165435 -0.81500006
-0.037956059 0.049165435 -0.81500006
-0.32050151 0.051116209 -0.81500006
-0.31753221 0.05216381 -0.81611115
-0.31276405 0.052219428 -0.81700009
-0.30764967 0.052219424 -0.81699997
-0.30260286 0.052303255 -0.81599998
-0.2974214 0.052774955 -0.81585723
-0.29231226 0.053002741 -0.81614292
-0.28740731 0.052812502 -0.81642872
-0.28246233 0.052888848 -0.8160001
-0.27808392 0.052888848 -0.8160001
-0.27307859 0.053262062 -0.81500006
-0.26826826 0.053554676 -0.81500006
-0.065974049 0.050876997 -0.81900007
-0.062311977 0.051612131 -0.81900012
-0.057668343 0.051891688 -0.8184287
-0.052704662 0.05226323 -0.81766689
-0.047612388 0.052291639 -0.81811124
-0.042467579 0.052263238 -0.81766677
-0.037359186 0.052277837 -0.81788898
-0.032416828 0.052378289 -0.81736374
-0.027408252 0.052125689 -0.81780016
-0.022895245 0.052420981 -0.81725001
-0.017576236 0.052904826 -0.81625003
-0.012462071 0.052888852 -0.81599998
-0.0078380369 0.05311079 -0.81566668
-0.0022430927 0.053554676 -0.81500006
0.002129924 0.053554676 -0.81500006
0.0065029403 0.053554676 -0.81500006
-0.31621522 0.05577787 -0.81900012
-0.31251916 0.056557383 -0.81875014
-0.30767038 0.056758042 -0.81900018
-0.30254355 0.056758039 -0.81900012
-0.29814905 0.056127936 -0.81900012
-0.29228973 0.056022912 -0.81900012
-0.28789526 0.055287786 -0.81900012
-0.28276834 0.056022912 -0.81900012
-0.27716568 0.0568914 -0.81855565
-0.27263808 0.057664387 -0.81842881
-0.26751918 0.057367321 -0.81716681
-0.26238564 0.057883997 -0.81620008
-0.25781462 0.058424421 -0.81585717
-0.25365552 0.058967896 -0.81566668
-0.052790612 0.055287782 -0.81900007
-0.046198893 0.055287782 -0.81900007
-0.042536825 0.055287782 -0.81900007
-0.037409935 0.055287786 -0.81900012
-0.034480281 0.055287782 -0.81900007
-0.022029258 0.055287782 -0.81900007
-0.017195329 0.055581834 -0.81900007
-0.012498301 0.055977911 -0.81833351
-0.0073739309 0.056701493 -0.81816685
-0.0022513494 0.05742478 -0.8180002
0.0021370302 0.05741353 -0.81783354
0.0072539598 0.057391021 -0.81750011
0.01222044 0.056929506 -0.81720012
0.017478267 0.056621842 -0.81700015
0.02259264 0.056621838 -0.81700009
0.027268637 0.05764826 -0.81700003
0.10781115 0.059406996 -0.81500006
0.11291301 0.059406996 -0.81500006
-0.27031738 0.062639087 -0.81900012
-0.26738766 0.062639095 -0.81900012
-0.26226082 0.06263908 -0.81900018
-0.25699475 0.062605895 -0.81855565
0.099793956 0.063064694 -0.81500006
0.10292345 0.062535606 -0.81525004
0.10753153 0.062279698 -0.81619996
0.11276013 0.062676385 -0.81772739
0.11757384 0.062488511 -0.81700009
0.12221646 0.062688403 -0.81580001
0.12764616 0.063142978 -0.8160001
0.13202454 0.063142978 -0.81599998
0.13738383 0.06325949 -0.8175
0.14235638 0.063195162 -0.81666678
0.14743783 0.063913651 -0.81650007
0.15227014 0.063796237 -0.81500006
-0.26702148 0.065947175 -0.81900007
-0.26226079 0.066314735 -0.81900012
-0.25811046 0.0660697 -0.81900012
0.099793956 0.06599085 -0.81500006
0.10309003 0.066920951 -0.81544447
0.10738979 0.067645855 -0.8173334
0.11240161 0.067562751 -0.81885731
0.11815464 0.066167712 -0.81900007
0.12225614 0.066314742 -0.81900012
0.12738302 0.065579608 -0.81900007
0.13250993 0.065579608 -0.81900012
0.13763683 0.065579608 -0.81900007
0.14276372 0.065579608 -0.81900012
0.1475244 0.065947175 -0.81900007
0.15219122 0.066274695 -0.8185001
0.1573579 0.066904657 -0.81720012
0.16256745 0.067773066 -0.81757152
0.16761431 0.067492858 -0.81671441
0.17250222 0.067654058 -0.81614292
0.17765327 0.067421138 -0.81585717
0.18271644 0.067258 -0.81663644
0.18756063 0.066832751 -0.81633335
0.19220099 0.06667541 -0.81620008
0.19721085 0.067181267 -0.81700003
0.20207864 0.067537598 -0.8160001
0.20748416 0.068613388 -0.81660002
0.21248867 0.069066569 -0.81675005
0.21775343 0.069119193 -0.81614292
0.2226935 0.069059454 -0.81666678
0.2266641 0.06941098 -0.81650007
0.23228191 0.069819473 -0.81700003
0.23739627 0.069819473 -0.81700009
0.24251065 0.069819473 -0.81700003
0.24721971 0.069705531 -0.81566668
0.1080102 0.071731769 -0.81540006
0.11256382 0.072818704 -0.81775004
0.21161056 0.071460649 -0.81900007
0.21746986 0.071460649 -0.81900012
0.22308503 0.072440825 -0.81900012
0.22772364 0.072930925 -0.81900012
0.23245466 0.072905473 -0.81871444
0.23728627 0.072882347 -0.81845468
0.24242739 0.072859682 -0.81820011
0.24718411 0.073193535 -0.81700009
0.25284952 0.074037805 -0.81500006
0.25722253 0.074037805 -0.81500006
0.262539 0.073366813 -0.81566668
0.266812 0.073817857 -0.81580013
0.27252808 0.074037798 -0.81500006
0.27762997 0.074037805 -0.81500006
0.2827318 0.074037798 -0.81500006
0.28710482 0.074037798 -0.81500006
0.1133476 0.075912967 -0.81550002
0.11611259 0.077150434 -0.81700009
0.2485974 0.076239005 -0.81900007
0.25225949 0.076239005 -0.81900007
0.25792524 0.076268889 -0.81800008
0.26282182 0.077088431 -0.81825006
0.26730514 0.077120565 -0.81820005
0.27241868 0.077424817 -0.81845468
0.27754888 0.077120557 -0.81820011
0.28247693 0.077373326 -0.81790918
0.28751084 0.077045374 -0.8174001
0.29212034 0.077428699 -0.81680012
0.29512203 0.078427032 -0.81500006
0.11757385 0.080086164 -0.81700003
0.29364082 0.080282219 -0.81900007
0.29620746 0.081651762 -0.81800008
0.29803532 0.08763352 -0.81900012
0.29803529 0.090574041 -0.81900007
0.29901183 0.09792535 -0.81900012
0.30023 0.099152878 -0.81700003
0.30159318 0.10211292 -0.81575006
0.30605453 0.10476247 -0.81500006
0.35342893 0.10183632 -0.81500006
0.35707307 0.10183632 -0.81500006
0.3037082 0.10557994 -0.81850004
0.30779248 0.10788523 -0.81833351
0.31219763 0.10817151 -0.81724995
0.31738493 0.10880955 -0.81871444
0.32244179 0.10878713 -0.81775004
0.32766277 0.10882017 -0.81800008
0.33207053 0.10858759 -0.81625009
0.33707786 0.10879795 -0.81599998
0.3424964 0.10915171 -0.81500006
0.34759825 0.10915171 -0.81500006
0.35197124 0.10915171 -0.81500006
0.36946329 0.10842018 -0.81500006
0.37253153 0.10846423 -0.81533337
0.37664434 0.10832673 -0.81540006
0.30975389 0.11115769 -0.81900007
0.31121874 0.11115769 -0.81900007
0.33392352 0.11115769 -0.81900007
0.33811012 0.11108983 -0.81850004
0.34266695 0.11188152 -0.81814301
0.34764919 0.11159391 -0.81757146
0.35260066 0.11203422 -0.81680006
0.35754487 0.11319118 -0.81775004
0.36239129 0.11311296 -0.8164286
0.36783376 0.11232475 -0.81677783
0.3726525 0.11238221 -0.81720012
0.37737808 0.11243752 -0.81583351
0.38112468 0.11354095 -0.81500006
0.37420627 0.11556847 -0.81900007
0.3775211 0.11668065 -0.81877786
0.38243872 0.11694464 -0.81833339
0.38750416 0.11662187 -0.81700015
0.39252907 0.11707699 -0.81720012
0.39776707 0.11785473 -0.81700009
0.40276152 0.11902708 -0.8175
0.40763181 0.11968627 -0.81700003
0.41296893 0.11953977 -0.81599998
0.40826347 0.12181708 -0.81900007
0.41229177 0.12218466 -0.81900012
0.41745934 0.12235703 -0.81790924
0.42264295 0.12259641 -0.8168335
0.42749584 0.12252075 -0.81633329
0.43234655 0.12281791 -0.8172223
0.43641701 0.12350105 -0.81700003
0.43719381 0.1258603 -0.81900012
-0.16106379 0.029997442 -0.81100005
-0.15816277 0.029997442 -0.81100005
-0.14873439 0.029997442 -0.81100005
-0.1414818 0.029997442 -0.81100005
-0.13858077 0.029997442 -0.81100005
-0.16205585 0.032477647 -0.81233341
-0.15756693 0.032937489 -0.81166673
-0.15248594 0.032937493 -0.81166667
-0.14736502 0.032928076 -0.8114444
-0.14210442 0.033064712 -0.81154549
-0.13743839 0.033123009 -0.81174999
-0.13239758 0.033497579 -0.81200004
-0.12770188 0.033273216 -0.81099999
-0.12291519 0.03378278 -0.81100005
-0.11899878 0.03436514 -0.81100005
-0.36196053 0.038732838 -0.81100005
-0.13165206 0.035909381 -0.81300008
-0.12728977 0.035909381 -0.81300008
-0.12220043 0.036639124 -0.81300008
-0.11698345 0.037329212 -0.8121112
-0.11406243 0.036594953 -0.81200004
-0.36225927 0.040221773 -0.81166673
-0.35776383 0.041747339 -0.81300002
-0.3541286 0.041747339 -0.81300002
-0.31786481 0.044265259 -0.81100005
-0.31207311 0.04416151 -0.81266665
-0.3075836 0.042790603 -0.81200004
-0.30257121 0.043320831 -0.81263638
-0.29759631 0.043855958 -0.81150007
-0.29305661 0.044666316 -0.81300008
-0.28580832 0.044556435 -0.81100005
-0.092164189 0.04164464 -0.81100005
-0.087192975 0.04169599 -0.81200004
-0.081799626 0.042086534 -0.8125
-0.077818014 0.042459965 -0.81266677
-0.072600856 0.042998612 -0.8121112
-0.067588627 0.043883428 -0.81199998
-0.062428575 0.044071138 -0.81100005
-0.057351764 0.043828487 -0.81100005
-0.052274954 0.043828487 -0.81099999
-0.047198143 0.043828487 -0.81100005
-0.042846587 0.044556435 -0.81100005
-0.037769772 0.044071138 -0.81100005
-0.032692961 0.044556435 -0.81100005
-0.027616147 0.044556435 -0.81100005
-0.32121333 0.047556929 -0.81250006
-0.31775364 0.047393963 -0.81220007
-0.31268689 0.046855554 -0.81300008
-0.30905163 0.046855554 -0.81300002
-0.30194274 0.047260966 -0.81300008
-0.29717579 0.047547072 -0.81233341
-0.29269335 0.0477199 -0.81280011
-0.28706107 0.047335882 -0.81099999
-0.28238925 0.047884207 -0.81100005
-0.27783048 0.048196182 -0.81100005
-0.27202845 0.048196189 -0.81100005
-0.26825705 0.048050594 -0.81100005
-0.26405057 0.048924133 -0.81100005
-0.066217765 0.046125807 -0.81300002
-0.06258253 0.046125807 -0.81300002
-0.057129674 0.046490677 -0.81300002
-0.052403864 0.04685555 -0.81300008
-0.047314536 0.046855554 -0.81300008
-0.042193502 0.047551256 -0.81240004
-0.037305318 0.047023803 -0.81275004
-0.032756064 0.047560085 -0.81255567
-0.027661551 0.047547475 -0.81233335
-0.022557864 0.047508452 -0.81166667
-0.017476877 0.047508456 -0.81166667
-0.012391396 0.048216294 -0.81133336
-0.0077440515 0.048632953 -0.81100005
-0.0022320838 0.048924133 -0.81100005
0.0021194702 0.048924133 -0.81100005
0.007196283 0.048924133 -0.81100005
0.012273096 0.048924133 -0.81100005
-0.29741889 0.050504278 -0.81300008
-0.29232955 0.050504275 -0.81300002
-0.28724021 0.050504278 -0.81300008
-0.28287792 0.050504278 -0.81300008
-0.27778861 0.050504275 -0.81300002
-0.27240846 0.051088072 -0.81300002
-0.26736757 0.051477272 -0.81300008
-0.26235959 0.052834757 -0.81209099
-0.25756872 0.053041156 -0.81159991
