# .PCD v0.7 - Point Cloud Data file format
VERSION 0.7
FIELDS x y z
SIZE 4 4 4
TYPE F F F
COUNT 1 1 1
WIDTH 1487
HEIGHT 1
VIEWPOINT 0 0 0 1 0 0 0
POINTS 1487
DATA ascii
-1.0971111 0.33743951 -2.332
-1.170102 0.3416259 -2.332
-1.1659311 0.3416259 -2.332
-1.1617602 0.3416259 -2.332
-1.1575893 0.3416259 -2.332
-1.1534184 0.3416259 -2.332
-1.1471621 0.3416259 -2.332
-1.1325638 0.3416259 -2.332
-1.1283929 0.3416259 -2.332
-1.1221366 0.3416259 -2.332
-1.1158803 0.3416259 -2.332
-1.1117092 0.3416259 -2.332
-1.1075383 0.3416259 -2.332
-1.1033674 0.3416259 -2.332
-1.0971111 0.3416259 -2.332
-1.0908548 0.3416259 -2.332
-1.0533166 0.3416259 -2.332
-1.0491457 0.3416259 -2.332
-1.1575893 0.34581229 -2.332
-1.1534184 0.34581229 -2.332
-1.1471621 0.34581229 -2.332
-1.1409056 0.34581229 -2.332
-1.1367347 0.34581229 -2.332
-1.1325638 0.34581229 -2.332
-1.1283929 0.34581229 -2.332
-1.1221366 0.34581229 -2.332
-1.1158803 0.34581229 -2.332
-1.1117092 0.34581229 -2.332
-1.1075383 0.34790549 -2.332
-1.1033674 0.34790549 -2.332
-1.0971111 0.34790549 -2.332
-1.0908548 0.34790549 -2.332
-1.0866839 0.34790549 -2.332
-1.082513 0.34999868 -2.332
-1.078342 0.34999868 -2.332
-1.0720856 0.34790549 -2.332
-1.0658293 0.34790549 -2.332
-1.0616584 0.34790549 -2.332
-1.0574875 0.34790549 -2.332
-1.0533166 0.34790549 -2.332
-1.0491457 0.34790549 -2.332
-1.0908548 0.35418504 -2.332
-1.0866839 0.35418504 -2.332
-1.082513 0.35418504 -2.332
-1.078342 0.35418504 -2.332
-1.0720856 0.35418504 -2.332
-1.0658293 0.35418504 -2.332
-1.0616584 0.35418504 -2.332
-1.0574875 0.35418504 -2.332
-1.0533166 0.35418504 -2.332
-1.0491457 0.35418504 -2.332
-1.1221366 0.83980554 -2.332
-1.1158803 0.83980554 -2.332
-1.1117092 0.83980554 -2.332
-1.1221366 0.84399194 -2.332
-1.1158803 0.84399194 -2.332
-1.1117092 0.84399194 -2.332
-1.1075383 0.84399194 -2.332
-1.1033674 0.84399194 -2.332
-1.0971111 0.84399194 -2.332
-1.1221366 0.84817833 -2.332
-1.1158803 0.84817833 -2.332
-1.1117092 0.84817833 -2.332
-1.1075383 0.84817833 -2.332
-1.1033674 0.84817833 -2.332
-1.0971111 0.84817833 -2.332
-1.0908548 0.84817833 -2.332
-1.1221366 0.85236472 -2.332
-1.1158803 0.85236472 -2.332
-1.1117092 0.85236472 -2.332
-1.1075383 0.85236472 -2.332
-1.1033674 0.85236472 -2.332
-1.0971111 0.85236472 -2.332
-1.0908548 0.85236472 -2.332
-1.1221366 0.85655111 -2.332
-1.1158803 0.85655111 -2.332
-1.1117092 0.85655111 -2.332
-1.1075383 0.85655111 -2.332
-1.1033674 0.85655111 -2.332
-1.0971111 0.85655111 -2.332
-1.0908548 0.85655111 -2.332
-1.0866839 0.85655111 -2.332
-1.1221366 0.8607375 -2.332
-1.1158803 0.8607375 -2.332
-1.1117092 0.8607375 -2.332
-1.1075383 0.8607375 -2.332
-1.1033674 0.8607375 -2.332
-1.0971111 0.8607375 -2.332
-1.0908548 0.8607375 -2.332
-1.0866839 0.8607375 -2.332
-1.082513 0.8607375 -2.332
-1.2407775 0.30602071 -2.3160002
-1.2366352 0.30602071 -2.3160002
-1.2324928 0.30602071 -2.3160002
-1.2283505 0.30602071 -2.3160002
-1.2366352 0.31017837 -2.3160002
-1.2324928 0.31017837 -2.3160002
-1.2283505 0.31017837 -2.3160002
-1.2214468 0.31156427 -2.3160005
-1.2159237 0.3122572 -2.3160002
-1.2117814 0.3122572 -2.3160002
-1.2076391 0.31433603 -2.3160002
-1.1786431 0.31433603 -2.3160002
-1.1724296 0.31433603 -2.3160002
-1.2076391 0.31849369 -2.3160002
-1.2034968 0.31849369 -2.3160002
-1.1972834 0.31849369 -2.3160002
-1.19107 0.31849369 -2.3160002
-1.1869277 0.31849369 -2.3160002
-1.1827854 0.31849369 -2.3160002
-1.1786431 0.31849369 -2.3160002
-1.1724296 0.31849369 -2.3160002
-1.1662161 0.31849369 -2.3160002
-1.1620739 0.31849369 -2.3160002
-1.1869277 0.32265136 -2.3160002
-1.1827854 0.32265136 -2.3160002
-1.1703584 0.32265136 -2.3160002
-1.1662161 0.32265136 -2.3160002
-1.1620739 0.32265136 -2.3160002
-1.1579316 0.32265136 -2.3160002
-1.1537893 0.32265136 -2.3160002
-1.0668012 0.32265136 -2.3160002
-1.1662161 0.32680902 -2.3160002
-1.1620739 0.32680902 -2.3160002
-1.1579316 0.32680902 -2.3160002
-1.1537893 0.32680902 -2.3160002
-1.1475759 0.32680902 -2.3160002
-1.1413624 0.32680902 -2.3160002
-1.0875126 0.32680902 -2.3160002
-1.0709435 0.32680902 -2.3160002
-1.0668012 0.32680902 -2.3160002
-1.0626589 0.32680902 -2.3160002
-1.0585165 0.32680902 -2.3160002
-1.0523031 0.32680902 -2.3160002
-1.1537893 0.33096668 -2.3160002
-1.1475759 0.33096668 -2.3160002
-1.1413624 0.33096668 -2.3160002
-1.1372201 0.33096668 -2.3160002
-1.1330779 0.33096668 -2.3160002
-1.0916549 0.33096668 -2.3160002
-1.0875126 0.33096668 -2.3160002
-1.0833703 0.33096668 -2.3160002
-1.0771569 0.33096668 -2.3160002
-1.0709435 0.33096668 -2.3160002
-1.0668012 0.33096668 -2.3160002
-1.0626589 0.33096668 -2.3160002
-1.0585165 0.33096668 -2.3160002
-1.0523031 0.33096668 -2.3160002
-1.0460896 0.33096668 -2.3160002
-1.1413624 0.33512434 -2.3160002
-1.1372201 0.33512434 -2.3160002
-1.1330779 0.33720317 -2.3160002
-1.1289356 0.33720317 -2.3160002
-1.1227221 0.33512434 -2.3160002
-1.1165086 0.33512434 -2.3160002
-1.1123663 0.33512434 -2.3160002
-1.108224 0.33512434 -2.3160002
-1.1040817 0.33512434 -2.3160002
-1.0978683 0.33512434 -2.3160002
-1.0833703 0.33512434 -2.3160002
-1.0771569 0.33720317 -2.3160002
-1.0709435 0.33720317 -2.3160002
-1.0668012 0.33720317 -2.3160002
-1.0626589 0.33720317 -2.3160002
-1.0585165 0.33720317 -2.3160002
-1.0523031 0.33720317 -2.3160002
-1.0460896 0.33512434 -2.3160002
-1.0750858 0.34343967 -2.3160002
-1.0709435 0.34343967 -2.3160002
-1.2322056 0.29151976 -2.3000002
-1.228092 0.29151976 -2.3000002
-1.2239783 0.29151976 -2.3000002
-1.2322056 0.29771316 -2.3000002
-1.228092 0.29771316 -2.3000002
-1.2239783 0.29771316 -2.3000002
-1.2178078 0.29771316 -2.3000002
-1.2116373 0.29977763 -2.3000002
-1.2075236 0.29977763 -2.3000002
-1.2034099 0.29977763 -2.3000002
-1.0717723 0.29977763 -2.3000002
-1.2157509 0.30390656 -2.3000002
-1.2116373 0.30390656 -2.3000002
-1.2075236 0.30390656 -2.3000002
-1.2034099 0.30390656 -2.3000002
-1.1972394 0.30390656 -2.3000002
-1.1910689 0.30390656 -2.3000002
-1.1869552 0.30390656 -2.3000002
-1.1828415 0.30390656 -2.3000002
-1.1787279 0.30390656 -2.3000002
-1.1725574 0.30390656 -2.3000002
-1.1663868 0.30390656 -2.3000002
-1.1622732 0.30390656 -2.3000002
-1.1581595 0.30390656 -2.3000002
-1.1540458 0.30390656 -2.3000002
-1.075886 0.30390656 -2.3000002
-1.0717723 0.30390656 -2.3000002
-1.1972394 0.30803552 -2.3000002
-1.1910689 0.30803552 -2.3000002
-1.1869552 0.30803552 -2.3000002
-1.1828415 0.30803552 -2.3000002
-1.1787279 0.30803552 -2.3000002
-1.1725574 0.30803552 -2.3000002
-1.1663868 0.30803552 -2.3000002
-1.1622732 0.30803552 -2.3000002
-1.1581595 0.30803552 -2.3000002
-1.1540458 0.30803552 -2.3000002
-1.1478753 0.30803552 -2.3000002
-1.0841134 0.30803552 -2.3000002
-1.0779428 0.30803552 -2.3000002
-1.0717723 0.30803552 -2.3000002
-1.0676587 0.30803552 -2.3000002
-1.1951826 0.31216446 -2.3000002
-1.1910689 0.31216446 -2.3000002
-1.1869552 0.31216446 -2.3000002
-1.1828415 0.31216446 -2.3000002
-1.1787279 0.31216446 -2.3000002
-1.1746142 0.31216446 -2.3000002
-1.1581595 0.31216446 -2.3000002
-1.1540458 0.31216446 -2.3000002
-1.1478753 0.31216446 -2.3000002
-1.1417048 0.31216446 -2.3000002
-1.1375911 0.31216446 -2.3000002
-1.1334774 0.31216446 -2.3000002
-1.088227 0.31216446 -2.3000002
-1.0841134 0.31216446 -2.3000002
-1.0779428 0.31216446 -2.3000002
-1.0717723 0.31216446 -2.3000002
-1.0676587 0.31216446 -2.3000002
-1.1478753 0.31629339 -2.3000002
-1.1417048 0.31629339 -2.3000002
-1.1375911 0.31629339 -2.3000002
-1.1334774 0.31629339 -2.3000002
-1.1273069 0.31629339 -2.3000002
-1.1211364 0.31629339 -2.3000002
-1.1170228 0.31629339 -2.3000002
-1.1129091 0.31629339 -2.3000002
-1.1087954 0.31629339 -2.3000002
-1.1026249 0.31629339 -2.3000002
-1.0964544 0.31629339 -2.3000002
-1.0923407 0.31629339 -2.3000002
-1.088227 0.31629339 -2.3000002
-1.0841134 0.31629339 -2.3000002
-1.0779428 0.31629339 -2.3000002
-1.0717723 0.31629339 -2.3000002
-1.0676587 0.31629339 -2.3000002
-1.063545 0.31629339 -2.3000002
-1.1417048 0.32042232 -2.3000002
-1.1375911 0.32042232 -2.3000002
-1.1334774 0.32042232 -2.3000002
-1.1273069 0.32248679 -2.3000002
-1.1211364 0.32248679 -2.3000002
-1.1170228 0.32248679 -2.3000002
-1.1129091 0.32248679 -2.3000002
-1.1087954 0.32248679 -2.3000002
-1.1026249 0.32248679 -2.3000002
-1.0964544 0.32248679 -2.3000002
-1.0923407 0.32248679 -2.3000002
-1.088227 0.32248679 -2.3000002
-1.0841134 0.32248679 -2.3000002
-1.0772573 0.32179865 -2.3000002
-1.0717723 0.32248679 -2.3000002
-1.0676587 0.32248679 -2.3000002
-1.063545 0.32042232 -2.3000002
-1.1211364 0.32868019 -2.3000002
-1.1170228 0.32868019 -2.3000002
-1.1129091 0.32868019 -2.3000002
-1.1087954 0.32868019 -2.3000002
-1.1026249 0.32868019 -2.3000002
-1.0964544 0.32868019 -2.3000002
-1.0923407 0.32868019 -2.3000002
-1.088227 0.32868019 -2.3000002
-1.2241695 0.2732105 -2.2850001
-1.222126 0.27731252 -2.2850001
-1.2159958 0.27731252 -2.2850001
-1.222126 0.28141451 -2.2850001
-1.2159958 0.28141451 -2.2850001
-1.2119089 0.28141451 -2.2850001
-1.0688692 0.28141451 -2.2850001
-1.222126 0.28551653 -2.2850001
-1.2159958 0.28551653 -2.2850001
-1.2119089 0.28756756 -2.2850001
-1.2078221 0.28756756 -2.2850001
-1.2037352 0.28756756 -2.2850001
-1.1976049 0.28756753 -2.2850001
-1.1914747 0.28961855 -2.2850001
-1.1873878 0.28961855 -2.2850001
-1.183301 0.28961855 -2.2850001
-1.1771708 0.28961855 -2.2850001
-1.1710404 0.28961855 -2.2850001
-1.1669536 0.28961855 -2.2850001
-1.1628667 0.28961855 -2.2850001
-1.15878 0.28961855 -2.2850001
-1.1526496 0.28961855 -2.2850001
-1.1465194 0.28961855 -2.2850001
-1.1424326 0.28961855 -2.2850001
-1.1383457 0.28961855 -2.2850001
-1.0770429 0.28961855 -2.2850001
-1.0729561 0.28756756 -2.2850001
-1.0688692 0.28756756 -2.2850001
-1.2037352 0.29372054 -2.2850001
-1.1976049 0.29372054 -2.2850001
-1.1914747 0.29372054 -2.2850001
-1.1873878 0.29372054 -2.2850001
-1.183301 0.29372054 -2.2850001
-1.1771708 0.29372054 -2.2850001
-1.1710404 0.29372054 -2.2850001
-1.1669536 0.29372054 -2.2850001
-1.1628667 0.29372054 -2.2850001
-1.15878 0.29372054 -2.2850001
-1.1526496 0.29372054 -2.2850001
-1.1465194 0.29372054 -2.2850001
-1.1424326 0.29372054 -2.2850001
-1.1383457 0.29372054 -2.2850001
-1.1322155 0.29372054 -2.2850001
-1.1076944 0.29372054 -2.2850001
-1.101564 0.29372054 -2.2850001
-1.0974772 0.29372054 -2.2850001
-1.0933903 0.29372054 -2.2850001
-1.08726 0.29372054 -2.2850001
-1.0811298 0.29372054 -2.2850001
-1.0770429 0.29372054 -2.2850001
-1.0729561 0.29372054 -2.2850001
-1.0688692 0.29372054 -2.2850001
-1.1914747 0.29782256 -2.2850001
-1.1873878 0.29782256 -2.2850001
-1.183301 0.29782256 -2.2850001
-1.1771708 0.29782256 -2.2850001
-1.1710404 0.29782256 -2.2850001
-1.1669536 0.29782256 -2.2850001
-1.1628667 0.29782256 -2.2850001
-1.15878 0.29782256 -2.2850001
-1.1526496 0.29782256 -2.2850001
-1.1465194 0.29782256 -2.2850001
-1.1424326 0.29782256 -2.2850001
-1.1383457 0.29782256 -2.2850001
-1.1322155 0.29782256 -2.2850001
-1.1260852 0.29782256 -2.2850001
-1.1219983 0.29782256 -2.2850001
-1.1179115 0.29782256 -2.2850001
-1.1138246 0.29782256 -2.2850001
-1.1076944 0.29782256 -2.2850001
-1.101564 0.29782256 -2.2850001
-1.0974772 0.29782256 -2.2850001
-1.0933903 0.29782256 -2.2850001
-1.08726 0.29782256 -2.2850001
-1.0811298 0.29782256 -2.2850001
-1.0770429 0.29782256 -2.2850001
-1.0729561 0.29782256 -2.2850001
-1.0688692 0.29782256 -2.2850001
-1.1424326 0.30192456 -2.2850001
-1.1383457 0.30192456 -2.2850001
-1.1322155 0.30192456 -2.2850001
-1.1260852 0.30192456 -2.2850001
-1.1219983 0.30192456 -2.2850001
-1.1179115 0.30192456 -2.2850001
-1.1138246 0.30192456 -2.2850001
-1.1076944 0.30192456 -2.2850001
-1.101564 0.30192456 -2.2850001
-1.0974772 0.30192456 -2.2850001
-1.0933903 0.30192456 -2.2850001
-1.08726 0.30192456 -2.2850001
-1.0811298 0.30192456 -2.2850001
-1.0770429 0.30192456 -2.2850001
-1.0729561 0.30192456 -2.2850001
-1.1322155 0.30602658 -2.2850001
-1.1260852 0.30602658 -2.2850001
-1.1219983 0.30602658 -2.2850001
-1.1179115 0.30602658 -2.2850001
-1.1138246 0.30602658 -2.2850001
-1.1076944 0.30602658 -2.2850001
-1.101564 0.30602658 -2.2850001
-1.0974772 0.30602658 -2.2850001
-1.0933903 0.30602658 -2.2850001
-1.08726 0.30602658 -2.2850001
-1.0811298 0.30602658 -2.2850001
-1.1219983 0.3101286 -2.2850001
-1.1179115 0.3101286 -2.2850001
-1.1138246 0.3101286 -2.2850001
-1.1076944 0.3101286 -2.2850001
-1.101564 0.3101286 -2.2850001
-1.0974772 0.3101286 -2.2850001
-1.0933903 0.3101286 -2.2850001
-1.08726 0.3101286 -2.2850001
-1.2161334 0.26326686 -2.2700002
-1.2161334 0.26734194 -2.2700002
-1.2120733 0.26734194 -2.2700002
-1.2120733 0.27141702 -2.2700002
-1.2080134 0.27141702 -2.2700002
-1.2039534 0.27141702 -2.2700002
-1.1978633 0.27141702 -2.2700002
-1.2039534 0.2754921 -2.2700002
-1.1978633 0.27752966 -2.2700002
-1.1917733 0.27752966 -2.2700002
-1.1877133 0.27752966 -2.2700002
-1.1836532 0.27752966 -2.2700002
-1.1775632 0.27752966 -2.2700002
-1.1714731 0.27752966 -2.2700002
-1.1674131 0.27752966 -2.2700002
-1.1633531 0.27752966 -2.2700002
-1.1572632 0.27752966 -2.2700002
-1.1511731 0.27752966 -2.2700002
-1.1471131 0.27752966 -2.2700002
-1.1430531 0.27752966 -2.2700002
-1.138993 0.27956718 -2.2700002
-1.1322263 0.27820885 -2.2700002
-1.1268129 0.27752966 -2.2700002
-1.1227529 0.27752966 -2.2700002
-1.1186929 0.27752966 -2.2700002
-1.1132797 0.27820885 -2.2700002
-1.1065129 0.27956718 -2.2700002
-1.1024529 0.27956718 -2.2700002
-1.0983928 0.27956718 -2.2700002
-1.0923028 0.27956718 -2.2700002
-1.0862128 0.27956718 -2.2700002
-1.0821527 0.27956718 -2.2700002
-1.0780927 0.27956718 -2.2700002
-1.0740327 0.27956718 -2.2700002
-1.0672661 0.27820885 -2.2700002
-1.0618527 0.2754921 -2.2700002
-1.1836532 0.28364226 -2.2700002
-1.1775632 0.28364226 -2.2700002
-1.1714731 0.28364226 -2.2700002
-1.1674131 0.28364226 -2.2700002
-1.1633531 0.28364226 -2.2700002
-1.1572632 0.28364226 -2.2700002
-1.1511731 0.28364226 -2.2700002
-1.1471131 0.28364226 -2.2700002
-1.1430531 0.28364226 -2.2700002
-1.138993 0.28364226 -2.2700002
-1.132903 0.28364226 -2.2700002
-1.1268129 0.28364226 -2.2700002
-1.1227529 0.28364226 -2.2700002
-1.1186929 0.28364226 -2.2700002
-1.1126029 0.28364226 -2.2700002
-1.1065129 0.28364226 -2.2700002
-1.1024529 0.28364226 -2.2700002
-1.0983928 0.28364226 -2.2700002
-1.0923028 0.28364226 -2.2700002
-1.0862128 0.28364226 -2.2700002
-1.0821527 0.28364226 -2.2700002
-1.0780927 0.28364226 -2.2700002
-1.0740327 0.28364226 -2.2700002
-1.0699728 0.28364226 -2.2700002
-1.1268129 0.28771734 -2.2700002
-1.1227529 0.28771734 -2.2700002
-1.1186929 0.28771734 -2.2700002
-1.1126029 0.28771734 -2.2700002
-1.1065129 0.28771734 -2.2700002
-1.1024529 0.28771734 -2.2700002
-1.0983928 0.28771734 -2.2700002
-1.0923028 0.28771734 -2.2700002
-1.0862128 0.28771734 -2.2700002
-1.0821527 0.28771734 -2.2700002
-1.0780927 0.28771734 -2.2700002
-1.0740327 0.28771734 -2.2700002
-1.1186929 0.29179242 -2.2700002
-1.1126029 0.29179242 -2.2700002
-1.1065129 0.29179242 -2.2700002
-1.2080973 0.23723829 -2.2550001
-1.2080973 0.24128644 -2.2550001
-1.2040641 0.24128644 -2.2550001
-1.2080973 0.24735868 -2.2550001
-1.2027198 0.24668398 -2.2550001
-1.2080973 0.2534309 -2.2550001
-1.2020476 0.2534309 -2.2550001
-1.1959977 0.2534309 -2.2550001
-1.1919645 0.2534309 -2.2550001
-1.2080973 0.25747904 -2.2550001
-1.2020476 0.25747904 -2.2550001
-1.1959977 0.25747904 -2.2550001
-1.1919645 0.25747904 -2.2550001
-1.1879313 0.25747904 -2.2550001
-1.2020476 0.26152721 -2.2550001
-1.1959977 0.26152721 -2.2550001
-1.1919645 0.26152721 -2.2550001
-1.1879313 0.26152721 -2.2550001
-1.1838982 0.26152721 -2.2550001
-1.1778483 0.26152721 -2.2550001
-1.1717986 0.26152721 -2.2550001
-1.0669357 0.26152721 -2.2550001
-1.2000309 0.26557535 -2.2550001
-1.1959977 0.26557535 -2.2550001
-1.1919645 0.26557535 -2.2550001
-1.1879313 0.26557535 -2.2550001
-1.1838982 0.26759943 -2.2550001
-1.1778483 0.26759943 -2.2550001
-1.1717986 0.26759943 -2.2550001
-1.1677654 0.26759943 -2.2550001
-1.1637322 0.26759943 -2.2550001
-1.1576824 0.26759943 -2.2550001
-1.1516327 0.26759943 -2.2550001
-1.1475995 0.26759943 -2.2550001
-1.1435663 0.26759943 -2.2550001
-1.1375165 0.26759943 -2.2550001
-1.1314666 0.26759943 -2.2550001
-1.1274335 0.26759943 -2.2550001
-1.1234003 0.26759943 -2.2550001
-1.1173506 0.26759943 -2.2550001
-1.1113007 0.26759943 -2.2550001
-1.1072675 0.26759943 -2.2550001
-1.1032343 0.26962352 -2.2550001
-1.0971847 0.26962352 -2.2550001
-1.0911348 0.26962352 -2.2550001
-1.0871016 0.26962352 -2.2550001
-1.0830684 0.26962352 -2.2550001
-1.0776908 0.26827413 -2.2550001
-1.0709689 0.26759943 -2.2550001
-1.0669357 0.26759943 -2.2550001
-1.0629025 0.26759943 -2.2550001
-1.0588692 0.26962352 -2.2550001
-1.1314666 0.27367166 -2.2550001
-1.1274335 0.27367166 -2.2550001
-1.1032343 0.27367166 -2.2550001
-1.0971847 0.27367166 -2.2550001
-1.0911348 0.27367166 -2.2550001
-1.0871016 0.27367166 -2.2550001
-1.0830684 0.27367166 -2.2550001
-1.0770185 0.27367166 -2.2550001
-1.0709689 0.27367166 -2.2550001
-1.0669357 0.27367166 -2.2550001
-1.0629025 0.27367166 -2.2550001
-1.2000611 0.2195753 -2.24
-1.2000611 0.22359653 -2.24
-1.1960547 0.22359653 -2.24
-1.1920484 0.22359653 -2.24
-1.188042 0.22359653 -2.24
-1.2000611 0.22761774 -2.24
-1.1960547 0.22761774 -2.24
-1.1920484 0.22761774 -2.24
-1.188042 0.22761774 -2.24
-1.1840357 0.22761774 -2.24
-1.2000611 0.23163897 -2.24
-1.1960547 0.23163897 -2.24
-1.1920484 0.23163897 -2.24
-1.188042 0.23163897 -2.24
-1.1820325 0.23163897 -2.24
-1.1960547 0.2356602 -2.24
-1.1920484 0.23767081 -2.24
-1.188042 0.23767081 -2.24
-1.1820325 0.23767081 -2.24
-1.1760229 0.2356602 -2.24
-1.1720166 0.2356602 -2.24
-1.1680102 0.2356602 -2.24
-1.188042 0.24370265 -2.24
-1.1820325 0.24370265 -2.24
-1.1760229 0.24370265 -2.24
-1.1720166 0.24370265 -2.24
-1.1680102 0.24370265 -2.24
-1.1640038 0.24370265 -2.24
-1.143972 0.24370265 -2.24
-1.1920484 0.24772388 -2.24
-1.188042 0.24772388 -2.24
-1.1820325 0.24772388 -2.24
-1.1760229 0.24772388 -2.24
-1.1720166 0.24772388 -2.24
-1.1680102 0.24772388 -2.24
-1.1640038 0.24772388 -2.24
-1.1579943 0.24772388 -2.24
-1.1519848 0.24772388 -2.24
-1.1479784 0.24772388 -2.24
-1.143972 0.24772388 -2.24
-1.1379625 0.24772388 -2.24
-1.131953 0.24772388 -2.24
-1.1279466 0.24772388 -2.24
-1.1239402 0.24772388 -2.24
-1.1179307 0.24772388 -2.24
-1.1800293 0.2517451 -2.24
-1.1760229 0.2517451 -2.24
-1.1720166 0.2517451 -2.24
-1.1680102 0.2517451 -2.24
-1.1640038 0.2517451 -2.24
-1.1579943 0.2517451 -2.24
-1.1519848 0.2517451 -2.24
-1.1479784 0.2517451 -2.24
-1.143972 0.2517451 -2.24
-1.1379625 0.2517451 -2.24
-1.131953 0.2517451 -2.24
-1.1279466 0.2517451 -2.24
-1.1239402 0.2517451 -2.24
-1.1179307 0.2517451 -2.24
-1.1119211 0.2517451 -2.24
-1.1079148 0.2517451 -2.24
-1.1039084 0.2517451 -2.24
-1.0978988 0.2517451 -2.24
-1.1760229 0.25576633 -2.24
-1.1720166 0.25576633 -2.24
-1.1680102 0.25576633 -2.24
-1.1640038 0.25576633 -2.24
-1.1579943 0.25777695 -2.24
-1.1519848 0.25777695 -2.24
-1.1479784 0.25777695 -2.24
-1.143972 0.25777695 -2.24
-1.1379625 0.25777695 -2.24
-1.131953 0.25777695 -2.24
-1.1279466 0.25777695 -2.24
-1.1239402 0.25777695 -2.24
-1.1179307 0.25777695 -2.24
-1.1119211 0.25777695 -2.24
-1.1079148 0.25777695 -2.24
-1.1039084 0.25777695 -2.24
-1.0978988 0.25777695 -2.24
-1.0918893 0.25777695 -2.24
-1.087883 0.25777695 -2.24
-1.0838766 0.25777695 -2.24
-1.077867 0.25777695 -2.24
-1.0718575 0.25777695 -2.24
-1.0678512 0.25777695 -2.24
-1.0638448 0.25777695 -2.24
-1.0958956 0.26380879 -2.24
-1.0918893 0.26380879 -2.24
-1.087883 0.26380879 -2.24
-1.0838766 0.26380879 -2.24
-1.077867 0.26380879 -2.24
-1.0678512 0.26380879 -2.24
-1.1920251 0.20612203 -2.2250001
-1.1880455 0.20612203 -2.2250001
-1.1920251 0.21211347 -2.2250001
-1.1880455 0.21211347 -2.2250001
-1.1820761 0.21211347 -2.2250001
-1.1761069 0.21211347 -2.2250001
-1.1721274 0.21411063 -2.2250001
-1.1681478 0.21411063 -2.2250001
-1.1880455 0.21810493 -2.2250001
-1.1820762 0.21810493 -2.2250001
-1.1761069 0.21810493 -2.2250001
-1.1721274 0.21810493 -2.2250001
-1.1681478 0.21810493 -2.2250001
-1.1621785 0.21810493 -2.2250001
-1.1562092 0.21810493 -2.2250001
-1.1761069 0.22209921 -2.2250001
-1.1721274 0.22209921 -2.2250001
-1.1681478 0.22209921 -2.2250001
-1.1621785 0.22209921 -2.2250001
-1.1562092 0.22209921 -2.2250001
-1.1522297 0.22209921 -2.2250001
-1.1482501 0.22209921 -2.2250001
-1.1422808 0.22209921 -2.2250001
-1.1363115 0.22209921 -2.2250001
-1.132332 0.22209921 -2.2250001
-1.1721274 0.22609352 -2.2250001
-1.1681478 0.22609352 -2.2250001
-1.1621785 0.22609352 -2.2250001
-1.1562092 0.22609352 -2.2250001
-1.1522297 0.22609352 -2.2250001
-1.1482501 0.22609352 -2.2250001
-1.1422808 0.22609352 -2.2250001
-1.1363115 0.22609352 -2.2250001
-1.132332 0.22609352 -2.2250001
-1.1681478 0.23008782 -2.2250001
-1.1621785 0.23008782 -2.2250001
-1.1562092 0.23208496 -2.2250001
-1.1522297 0.23208496 -2.2250001
-1.1482501 0.23208496 -2.2250001
-1.1422808 0.23208496 -2.2250001
-1.1363115 0.23208496 -2.2250001
-1.132332 0.23208496 -2.2250001
-1.1283525 0.23408212 -2.2250001
-1.1223831 0.23408212 -2.2250001
-1.1164138 0.23408212 -2.2250001
-1.1124344 0.23408212 -2.2250001
-1.1084548 0.23408212 -2.2250001
-1.1044753 0.23408212 -2.2250001
-1.072639 0.23408212 -2.2250001
-1.1681478 0.23807642 -2.2250001
-1.1621785 0.23807642 -2.2250001
-1.1562092 0.23807642 -2.2250001
-1.1522297 0.23807642 -2.2250001
-1.1482501 0.23807642 -2.2250001
-1.1422808 0.23807642 -2.2250001
-1.1363115 0.23807642 -2.2250001
-1.132332 0.23807642 -2.2250001
-1.1283525 0.23807642 -2.2250001
-1.1223831 0.23807642 -2.2250001
-1.1164138 0.23807642 -2.2250001
-1.1124344 0.23807642 -2.2250001
-1.1084548 0.23807642 -2.2250001
-1.1024854 0.23807642 -2.2250001
-1.0965163 0.23807642 -2.2250001
-1.0925367 0.23807642 -2.2250001
-1.0885571 0.23807642 -2.2250001
-1.0825878 0.23807642 -2.2250001
-1.072639 0.23807642 -2.2250001
-1.1522297 0.2420707 -2.2250001
-1.1482501 0.2420707 -2.2250001
-1.1422808 0.2420707 -2.2250001
-1.132332 0.2420707 -2.2250001
-1.1283525 0.2420707 -2.2250001
-1.1223831 0.2420707 -2.2250001
-1.1164138 0.2420707 -2.2250001
-1.1124344 0.2420707 -2.2250001
-1.1084548 0.2420707 -2.2250001
-1.1024854 0.2420707 -2.2250001
-1.0965163 0.2420707 -2.2250001
-1.0925367 0.2420707 -2.2250001
-1.0885571 0.2420707 -2.2250001
-1.0825878 0.2420707 -2.2250001
-1.0766186 0.2420707 -2.2250001
-1.072639 0.2420707 -2.2250001
-1.0686594 0.2420707 -2.2250001
-1.1024854 0.24606501 -2.2250001
-1.0965163 0.24606501 -2.2250001
-1.0925367 0.24606501 -2.2250001
-1.0885571 0.24606501 -2.2250001
-1.0825878 0.24606501 -2.2250001
-1.0766186 0.24606501 -2.2250001
-1.072639 0.24606501 -2.2250001
-1.0686594 0.24606501 -2.2250001
-1.0626901 0.24606501 -2.2250001
-1.0825878 0.25005931 -2.2250001
-1.0766186 0.25005931 -2.2250001
-1.072639 0.25005931 -2.2250001
-1.0686594 0.25005931 -2.2250001
-1.0626901 0.25005931 -2.2250001
-1.1825473 0.19291757 -2.2110002
-1.1766156 0.19291757 -2.2110002
-1.1825473 0.19688675 -2.2110002
-1.1766156 0.19688675 -2.2110002
-1.1726611 0.19688675 -2.2110002
-1.1687067 0.19688675 -2.2110002
-1.1825473 0.20085591 -2.2110002
-1.1766156 0.20284049 -2.2110002
-1.1726611 0.20284049 -2.2110002
-1.1687067 0.20284049 -2.2110002
-1.1627748 0.20284049 -2.2110002
-1.1568432 0.20482507 -2.2110002
-1.1627748 0.20879424 -2.2110002
-1.1568432 0.20879424 -2.2110002
-1.1528887 0.20879424 -2.2110002
-1.1489341 0.20879424 -2.2110002
-1.1430025 0.20879424 -2.2110002
-1.1370707 0.20879424 -2.2110002
-1.1331161 0.20879424 -2.2110002
-1.1568432 0.2127634 -2.2110002
-1.1528887 0.2127634 -2.2110002
-1.1489341 0.2127634 -2.2110002
-1.1430025 0.2127634 -2.2110002
-1.1370707 0.2127634 -2.2110002
-1.1331161 0.2127634 -2.2110002
-1.1271844 0.2127634 -2.2110002
-1.1430025 0.21673258 -2.2110002
-1.1370707 0.21673258 -2.2110002
-1.1331161 0.21673258 -2.2110002
-1.1271844 0.21673258 -2.2110002
-1.1212527 0.21673258 -2.2110002
-1.1172982 0.21673258 -2.2110002
-1.1133437 0.21673258 -2.2110002
-1.1074119 0.21673258 -2.2110002
-1.1014802 0.21673258 -2.2110002
-1.1212527 0.22268632 -2.2110002
-1.1172982 0.22268632 -2.2110002
-1.1133437 0.22268632 -2.2110002
-1.1080711 0.22334784 -2.2110002
-1.1014802 0.2246709 -2.2110002
-1.1212527 0.22864006 -2.2110002
-1.1172982 0.22864006 -2.2110002
-1.1133437 0.22864006 -2.2110002
-1.1074119 0.22864006 -2.2110002
-1.1014802 0.22864006 -2.2110002
-1.0975257 0.22864006 -2.2110002
-1.0698442 0.22864006 -2.2110002
-1.0935712 0.23260923 -2.2110002
-1.0876396 0.23260923 -2.2110002
-1.0817077 0.23260923 -2.2110002
-1.0777533 0.23260923 -2.2110002
-1.0737988 0.23260923 -2.2110002
-1.0698442 0.23260923 -2.2110002
-1.0698442 0.2365784 -2.2110002
-1.1770242 0.18775199 -2.197
-1.1730949 0.18775199 -2.197
-1.1672006 0.18775199 -2.197
-1.1652359 0.19169603 -2.197
-1.1613065 0.19169603 -2.197
-1.157377 0.19169603 -2.197
-1.1534476 0.19169603 -2.197
-1.157377 0.19564007 -2.197
-1.1534476 0.19564007 -2.197
-1.1475534 0.19761208 -2.197
-1.1416593 0.19761208 -2.197
-1.1377298 0.1995841 -2.197
-1.1338003 0.1995841 -2.197
-1.1298709 0.1995841 -2.197
-1.1455886 0.20352814 -2.197
-1.1416593 0.20352814 -2.197
-1.1377298 0.20352814 -2.197
-1.1338003 0.20352814 -2.197
-1.1279061 0.20352814 -2.197
-1.1220119 0.20352814 -2.197
-1.1180825 0.20352814 -2.197
-1.1220119 0.20747216 -2.197
-1.1180825 0.20747216 -2.197
-1.1121883 0.20747216 -2.197
-1.1062942 0.20747216 -2.197
-1.1023647 0.20747216 -2.197
-1.0984352 0.20747216 -2.197
-1.1121883 0.2114162 -2.197
-1.1062942 0.2114162 -2.197
-1.1023647 0.2114162 -2.197
-1.0984352 0.2114162 -2.197
-1.092541 0.2114162 -2.197
-1.0669996 0.2114162 -2.197
-1.0984352 0.21930426 -2.197
-1.0918862 0.21798959 -2.197
-1.0866468 0.21536022 -2.197
-1.0827174 0.21536022 -2.197
-1.0787879 0.21536022 -2.197
-1.0669996 0.21930426 -2.197
-1.0905763 0.2232483 -2.197
-1.0866468 0.2232483 -2.197
-1.0827174 0.2232483 -2.197
-1.0787879 0.2232483 -2.197
-1.0728937 0.2232483 -2.197
-1.0669996 0.2232483 -2.197
-1.0630701 0.2232483 -2.197
-1.0866468 0.22719233 -2.197
-1.0827174 0.22719233 -2.197
-1.0787879 0.22719233 -2.197
-1.0728937 0.22719233 -2.197
-1.0669996 0.22719233 -2.197
-1.1675717 0.17871778 -2.1830001
-1.161715 0.17871778 -2.1830001
-1.1578107 0.17871778 -2.1830001
-1.1675717 0.18263668 -2.1830001
-1.161715 0.18263668 -2.1830001
-1.1578107 0.18263668 -2.1830001
-1.1539062 0.18263668 -2.1830001
-1.1519539 0.18655558 -2.1830001
-1.1460974 0.18655558 -2.1830001
-1.142193 0.18655558 -2.1830001
-1.1382886 0.18655558 -2.1830001
-1.132432 0.18655558 -2.1830001
-1.1265754 0.18655558 -2.1830001
-1.142193 0.19047448 -2.1830001
-1.1382886 0.19047448 -2.1830001
-1.1317813 0.19178078 -2.1830001
-1.1265754 0.19243392 -2.1830001
-1.1226709 0.19243392 -2.1830001
-1.1187664 0.19243392 -2.1830001
-1.1135607 0.19308709 -2.1830001
-1.1070533 0.19439338 -2.1830001
-1.0719135 0.19439338 -2.1830001
-1.1187664 0.19831228 -2.1830001
-1.1129098 0.19831228 -2.1830001
-1.1070533 0.19831228 -2.1830001
-1.1031488 0.19831228 -2.1830001
-1.0972922 0.19831228 -2.1830001
-1.0914356 0.19831228 -2.1830001
-1.0875312 0.19831228 -2.1830001
-1.0836267 0.19831228 -2.1830001
-1.0777701 0.19831228 -2.1830001
-1.0719135 0.19831228 -2.1830001
-1.0680091 0.19831228 -2.1830001
-1.1070533 0.20223118 -2.1830001
-1.1031488 0.20223118 -2.1830001
-1.0972922 0.20223118 -2.1830001
-1.0914356 0.20223118 -2.1830001
-1.0875312 0.20223118 -2.1830001
-1.0836267 0.20223118 -2.1830001
-1.0777701 0.20223118 -2.1830001
-1.0719135 0.20223118 -2.1830001
-1.0680091 0.20223118 -2.1830001
-1.0641047 0.20223118 -2.1830001
-1.0875312 0.20615008 -2.1830001
-1.0836267 0.20615008 -2.1830001
-1.0777701 0.20615008 -2.1830001
-1.0719135 0.20615008 -2.1830001
-1.0680091 0.20615008 -2.1830001
-1.0621524 0.20615008 -2.1830001
-1.0777701 0.21006897 -2.1830001
-1.0719135 0.21006897 -2.1830001
-1.0680091 0.21202841 -2.1830001
-1.0628031 0.21268158 -2.1830001
-1.0777701 0.21790677 -2.1830001
-1.0719135 0.21790677 -2.1830001
-1.0680091 0.21790677 -2.1830001
-1.0641047 0.21790677 -2.1830001
-1.1620234 0.16783722 -2.1690001
-1.1581441 0.16783722 -2.1690001
-1.152325 0.1697841 -2.1690001
-1.146506 0.1697841 -2.1690001
-1.1620234 0.17367786 -2.1690001
-1.1581441 0.17367786 -2.1690001
-1.152325 0.17367786 -2.1690001
-1.146506 0.17367786 -2.1690001
-1.1426266 0.17367786 -2.1690001
-1.1387472 0.17367786 -2.1690001
-1.146506 0.17757162 -2.1690001
-1.1426266 0.17757162 -2.1690001
-1.1387472 0.17757162 -2.1690001
-1.1329281 0.17757162 -2.1690001
-1.1271091 0.17757162 -2.1690001
-1.1232297 0.17757162 -2.1690001
-1.1426266 0.1814654 -2.1690001
-1.1387472 0.1814654 -2.1690001
-1.1329281 0.1814654 -2.1690001
-1.1271091 0.1814654 -2.1690001
-1.1232297 0.1814654 -2.1690001
-1.1174107 0.1814654 -2.1690001
-1.115471 0.18535917 -2.1690001
-1.1115916 0.18535917 -2.1690001
-1.1077123 0.18535917 -2.1690001
-1.1038328 0.18730605 -2.1690001
-1.0980138 0.18730605 -2.1690001
-1.0921947 0.18730605 -2.1690001
-1.0883154 0.18925293 -2.1690001
-1.0824963 0.18925293 -2.1690001
-1.0766772 0.18925293 -2.1690001
-1.0727978 0.18925293 -2.1690001
-1.0689185 0.18730605 -2.1690001
-1.0960741 0.19314671 -2.1690001
-1.0921947 0.19314671 -2.1690001
-1.0883154 0.19314671 -2.1690001
-1.0824963 0.19314671 -2.1690001
-1.0766772 0.19314671 -2.1690001
-1.0727978 0.19314671 -2.1690001
-1.0689185 0.19314671 -2.1690001
-1.154523 0.14934503 -2.1550002
-1.1525959 0.15321366 -2.1550002
-1.1468143 0.15321366 -2.1550002
-1.1525959 0.1570823 -2.1550002
-1.1468143 0.1570823 -2.1550002
-1.1429601 0.1570823 -2.1550002
-1.1024895 0.1570823 -2.1550002
-1.1525959 0.16095093 -2.1550002
-1.1468143 0.16288525 -2.1550002
-1.1429601 0.16288525 -2.1550002
-1.1371785 0.16288525 -2.1550002
-1.131397 0.16481957 -2.1550002
-1.1275427 0.16481957 -2.1550002
-1.1236883 0.16481957 -2.1550002
-1.1179068 0.16481957 -2.1550002
-1.1121254 0.16481957 -2.1550002
-1.108271 0.16481957 -2.1550002
-1.1024895 0.16288525 -2.1550002
-1.0967081 0.16288525 -2.1550002
-1.0928537 0.16288525 -2.1550002
-1.0870721 0.16481957 -2.1550002
-1.1352514 0.16868821 -2.1550002
-1.131397 0.16868821 -2.1550002
-1.1275427 0.16868821 -2.1550002
-1.1236883 0.16868821 -2.1550002
-1.1179068 0.16868821 -2.1550002
-1.1121254 0.16868821 -2.1550002
-1.108271 0.16868821 -2.1550002
-1.1024895 0.16868821 -2.1550002
-1.0967081 0.16868821 -2.1550002
-1.0928537 0.16868821 -2.1550002
-1.0870721 0.16868821 -2.1550002
-1.0812907 0.16868821 -2.1550002
-1.0774363 0.16868821 -2.1550002
-1.1275427 0.17255683 -2.1550002
-1.1236883 0.17255683 -2.1550002
-1.1179068 0.17255683 -2.1550002
-1.1121254 0.17255683 -2.1550002
-1.108271 0.17255683 -2.1550002
-1.1024895 0.17255683 -2.1550002
-1.0967081 0.17255683 -2.1550002
-1.0928537 0.17255683 -2.1550002
-1.0870721 0.17255683 -2.1550002
-1.0812907 0.17255683 -2.1550002
-1.0774363 0.17255683 -2.1550002
-1.0735821 0.17255683 -2.1550002
-1.1121254 0.17642547 -2.1550002
-1.108271 0.17642547 -2.1550002
-1.1024895 0.17642547 -2.1550002
-1.0967081 0.17642547 -2.1550002
-1.0928537 0.17642547 -2.1550002
-1.0870721 0.17642547 -2.1550002
-1.0812907 0.17642547 -2.1550002
-1.0774363 0.17642547 -2.1550002
-1.1024895 0.18029411 -2.1550002
-1.0967081 0.18029411 -2.1550002
-1.0928537 0.18029411 -2.1550002
-1.0870721 0.18029411 -2.1550002
-1.0812907 0.18222842 -2.1550002
-1.0774363 0.18222842 -2.1550002
-1.0735821 0.18222842 -2.1550002
-1.0671582 0.18287319 -2.1550002
-1.1475585 0.13690822 -2.1420002
-1.1437273 0.13690822 -2.1420002
-1.1475585 0.14267616 -2.1420002
-1.1437273 0.14267616 -2.1420002
-1.1386193 0.14331704 -2.1420002
-1.1437273 0.14844412 -2.1420002
-1.1379807 0.14844412 -2.1420002
-1.1322341 0.14844412 -2.1420002
-1.1360651 0.15228941 -2.1420002
-1.1322341 0.15228941 -2.1420002
-1.1284029 0.15228941 -2.1420002
-1.1226563 0.15228941 -2.1420002
-1.1169097 0.15228941 -2.1420002
-1.1130787 0.15228941 -2.1420002
-1.107332 0.15228941 -2.1420002
-1.1015854 0.15228941 -2.1420002
-1.1322341 0.15613471 -2.1420002
-1.1284029 0.15613471 -2.1420002
-1.1226563 0.15805736 -2.1420002
-1.1169097 0.15805736 -2.1420002
-1.1130787 0.15805736 -2.1420002
-1.107332 0.15805736 -2.1420002
-1.1015854 0.15805736 -2.1420002
-1.0671057 0.17536119 -2.1420002
-1.0632746 0.17728384 -2.1420002
-1.1405938 0.12461143 -2.1290002
-1.1405938 0.12843339 -2.1290002
-1.136786 0.12843339 -2.1290002
-1.1329781 0.12843339 -2.1290002
-1.1291703 0.12843339 -2.1290002
-1.1405938 0.13225535 -2.1290002
-1.136786 0.13225535 -2.1290002
-1.1329781 0.13225535 -2.1290002
-1.1272664 0.13225535 -2.1290002
-1.1215546 0.13225535 -2.1290002
-1.1177468 0.13225535 -2.1290002
-1.112035 0.13225535 -2.1290002
-1.1329781 0.13607731 -2.1290002
-1.1272664 0.13798828 -2.1290002
-1.1215546 0.1379883 -2.1290002
-1.1177468 0.1379883 -2.1290002
-1.112035 0.1379883 -2.1290002
-1.1063232 0.1379883 -2.1290002
-1.1025155 0.1379883 -2.1290002
-1.1253624 0.14372124 -2.1290002
-1.1215546 0.14372124 -2.1290002
-1.1177468 0.14372124 -2.1290002
-1.112035 0.14372124 -2.1290002
-1.1063232 0.14372124 -2.1290002
-1.1025155 0.14372124 -2.1290002
-1.0987077 0.14372124 -2.1290002
-1.1215546 0.14754319 -2.1290002
-1.1177468 0.14754319 -2.1290002
-1.112035 0.14754319 -2.1290002
-1.1063232 0.14754319 -2.1290002
-1.1025155 0.14754319 -2.1290002
-1.0987077 0.14754319 -2.1290002
-1.1330935 0.11809675 -2.115
-1.1274192 0.11999517 -2.115
-1.1217451 0.11999517 -2.115
-1.1179624 0.11999517 -2.115
-1.1122881 0.11999517 -2.115
-1.1274192 0.123792 -2.115
-1.1217451 0.123792 -2.115
-1.1179624 0.123792 -2.115
-1.1122881 0.123792 -2.115
-1.1066139 0.123792 -2.115
-1.1028311 0.123792 -2.115
-1.1179624 0.12758882 -2.115
-1.1122881 0.12758882 -2.115
-1.1066139 0.12758882 -2.115
-1.1028311 0.12758882 -2.115
-1.097157 0.12758882 -2.115
-1.097157 0.13138565 -2.115
-1.1261288 0.10793715 -2.102
-1.1261288 0.11171064 -2.102
-1.1223693 0.11171064 -2.102
-1.1186098 0.11171064 -2.102
-1.1129704 0.11171064 -2.102
-1.1073312 0.11171064 -2.102
-1.1035717 0.11171064 -2.102
-1.1223693 0.11548413 -2.102
-1.1186098 0.11548413 -2.102
-1.1129704 0.11548413 -2.102
-1.1073312 0.11548413 -2.102
-1.1035717 0.11548413 -2.102
-1.0985589 0.11799979 -2.102
-1.092293 0.11925761 -2.102
-1.092293 0.1230311 -2.102
-1.0885334 0.1230311 -2.102
-1.1122237 0.084809266 -2.0900002
-1.1084857 0.084809266 -2.0900002
-1.1084857 0.088561215 -2.0900002
-1.1047475 0.088561215 -2.0900002
-1.1084857 0.092313163 -2.0900002
-1.1047475 0.092313163 -2.0900002
-1.1196998 0.099817052 -2.0900002
-1.1084857 0.099817052 -2.0900002
-1.1028786 0.097941078 -2.0900002
-1.0972714 0.099817052 -2.0900002
-1.1178308 0.103569 -2.0900002
-1.1122237 0.103569 -2.0900002
-1.1084857 0.103569 -2.0900002
-1.1028786 0.103569 -2.0900002
-1.0972714 0.103569 -2.0900002
-1.0935333 0.103569 -2.0900002
-1.0897952 0.103569 -2.0900002
-1.1159618 0.10732095 -2.0900002
-1.1122237 0.10732095 -2.0900002
-1.1084857 0.10732095 -2.0900002
-1.1028786 0.10732095 -2.0900002
-1.0972714 0.10732095 -2.0900002
-1.0935333 0.10732095 -2.0900002
-1.0879261 0.10732095 -2.0900002
-1.0823191 0.10732095 -2.0900002
-1.0935333 0.1110729 -2.0900002
-1.0879261 0.11294887 -2.0900002
-1.0823191 0.1110729 -2.0900002
-1.1090205 0.076824524 -2.0770001
-1.1127353 0.082417443 -2.0770001
-1.1090205 0.082417443 -2.0770001
-1.1127353 0.088010356 -2.0770001
-1.107163 0.088010356 -2.0770001
-1.1127353 0.091738969 -2.0770001
-1.107163 0.091738969 -2.0770001
-1.1127353 0.095467575 -2.0770001
-1.107163 0.097331882 -2.0770001
-1.1015908 0.095467575 -2.0770001
-1.1057706 0.068933129 -2.0640001
-1.1057706 0.0726384 -2.0640001
-1.1057706 0.076343678 -2.0640001
-1.0993416 0.063006766 -2.052
-0.69885844 0.72000104 -2.0400002
-0.85797101 0.71576571 -2.0280001
-0.85434383 0.71576571 -2.0280001
-0.69474751 0.71940637 -2.0280001
-0.69837469 0.72304702 -2.0280001
-0.68703085 0.71153045 -2.016
-0.86731714 0.71876866 -2.016
-0.86130762 0.71756232 -2.0160003
-0.85649997 0.71695912 -2.016
-0.85289425 0.71695912 -2.016
-0.84748566 0.71514952 -2.016
-0.84207708 0.71514952 -2.016
-0.83847135 0.71514952 -2.016
-0.83306277 0.71514952 -2.016
-0.82765418 0.71514952 -2.016
-0.82404846 0.71514952 -2.016
-0.69063658 0.71876866 -2.016
-0.68703085 0.71695912 -2.016
-0.68342513 0.71695912 -2.016
-0.67981941 0.71876866 -2.016
-0.87092286 0.72238773 -2.016
-0.70145375 0.72238773 -2.016
-0.69784802 0.72238773 -2.016
-0.69243944 0.72238773 -2.016
-0.68703085 0.72238773 -2.016
-0.69063658 0.72600687 -2.016
-0.81197482 0.70729512 -2.0040002
-0.80839056 0.70729512 -2.0040002
-0.80301422 0.70729512 -2.0040002
-0.84244108 0.71449023 -2.0040002
-0.83706468 0.71449023 -2.0040002
-0.83348042 0.71449023 -2.0040002
-0.82810402 0.71449023 -2.0040002
-0.82272762 0.71449023 -2.0040002
-0.81735122 0.71269143 -2.0040002
-0.81197482 0.71089268 -2.0040002
-0.80839056 0.71089268 -2.0040002
-0.80480635 0.71089268 -2.0040002
-0.7367053 0.71089268 -2.0040002
-0.71519971 0.71449023 -2.0040002
-0.86215454 0.71808779 -2.0040002
-0.85857028 0.71808779 -2.0040002
-0.85319388 0.71808779 -2.0040002
-0.84781748 0.71808779 -2.0040002
-0.84423321 0.71808779 -2.0040002
-0.71519971 0.71808779 -2.0040002
-0.71161544 0.71808779 -2.0040002
-0.70803118 0.71808779 -2.0040002
-0.67756498 0.71808779 -2.0040002
-0.66860431 0.71808779 -2.0040002
-0.86215454 0.72168535 -2.0040002
-0.85857028 0.72168535 -2.0040002
-0.85498601 0.72168535 -2.0040002
-0.71699184 0.72168535 -2.0040002
-0.71161544 0.72168535 -2.0040002
-0.70803118 0.72168535 -2.0040002
-0.70265478 0.72168535 -2.0040002
-0.69727844 0.72168535 -2.0040002
-0.69190204 0.72168535 -2.0040002
-0.68294138 0.72168535 -2.0040002
-0.67935711 0.72168535 -2.0040002
-0.66502005 0.72168535 -2.0040002
-0.86215454 0.72708166 -2.0040002
-0.85857028 0.72528291 -2.0040002
-0.71699184 0.72708166 -2.0040002
-0.71161544 0.72708166 -2.0040002
-0.70803118 0.72708166 -2.0040002
-0.70265472 0.72708166 -2.0040002
-0.69727844 0.72708166 -2.0040002
-0.69190204 0.72708166 -2.0040002
-0.68652564 0.72708166 -2.0040002
-0.68294138 0.72708166 -2.0040002
-0.67935711 0.72708166 -2.0040002
-0.66502005 0.72708166 -2.0040002
-0.71699184 0.73247802 -2.0040002
-0.71161544 0.73247802 -2.0040002
-0.70803118 0.73247802 -2.0040002
-0.70265478 0.73247802 -2.0040002
-0.69727844 0.73247802 -2.0040002
-0.69190204 0.73247802 -2.0040002
-0.68652564 0.73247802 -2.0040002
-0.68294138 0.73247802 -2.0040002
-0.66502005 0.73247802 -2.0040002
-0.66143578 0.73247802 -2.0040002
-0.65785152 0.73247802 -2.0040002
-0.65247512 0.73247802 -2.0040002
-0.71519971 0.73787439 -2.0040002
-0.71161544 0.73787439 -2.0040002
-0.70803118 0.73787439 -2.0040002
-0.70265478 0.73787439 -2.0040002
-0.69727844 0.73787439 -2.0040002
-0.69190204 0.73787439 -2.0040002
-0.68652564 0.73787439 -2.0040002
-0.67935711 0.73607564 -2.0040002
-0.66681218 0.73787439 -2.0040002
-0.66143578 0.73787439 -2.0040002
-0.65785152 0.73787439 -2.0040002
-0.65247512 0.73787445 -2.0040002
-0.64709872 0.73787439 -2.0040002
-0.79286152 0.70305985 -1.9920001
-0.78929871 0.70305985 -1.9920001
-0.79642433 0.70663589 -1.9920001
-0.79286152 0.70663589 -1.9920001
-0.78929871 0.70663589 -1.9920001
-0.7821731 0.70663589 -1.9920001
-0.76792192 0.70663589 -1.9920001
-0.76079631 0.70663589 -1.9920001
-0.7572335 0.70663589 -1.9920001
-0.75188929 0.70663589 -1.9920001
-0.74654508 0.70663589 -1.9920001
-0.74298233 0.70663589 -1.9920001
-0.73763812 0.70663589 -1.9920001
-0.72694969 0.70663589 -1.9920001
-0.83561516 0.71378791 -1.9920001
-0.83205235 0.71378791 -1.9920001
-0.82848954 0.71378791 -1.9920001
-0.82314533 0.71378791 -1.9920001
-0.81780112 0.71378791 -1.9920001
-0.81186312 0.71259594 -1.9920001
-0.80711269 0.71199989 -1.9920001
-0.80354995 0.71199989 -1.9920001
-0.79879951 0.71140397 -1.9920001
-0.79286152 0.71021193 -1.9920001
-0.7821731 0.71199989 -1.9920001
-0.77682889 0.71199995 -1.9920001
-0.77148473 0.71199989 -1.9920001
-0.76792192 0.71199989 -1.9920001
-0.76198387 0.71259594 -1.9920001
-0.7572335 0.71199989 -1.9920001
-0.75188923 0.71199989 -1.9920001
-0.74654508 0.71199989 -1.9920001
-0.74298233 0.71199989 -1.9920001
-0.73763812 0.71199989 -1.9920001
-0.7322939 0.71199989 -1.9920001
-0.72694969 0.71199995 -1.9920001
-0.72160548 0.71199989 -1.9920001
-0.71804267 0.71199989 -1.9920001
-0.71447986 0.71199989 -1.9920001
-0.66816348 0.71378791 -1.9920001
-0.84630352 0.71736395 -1.9920001
-0.84274071 0.71736395 -1.9920001
-0.8373965 0.71736395 -1.9920001
-0.83205235 0.71736395 -1.9920001
-0.82848954 0.71736395 -1.9920001
-0.82314533 0.71736395 -1.9920001
-0.81780112 0.71736395 -1.9920001
-0.7821731 0.71736395 -1.9920001
-0.77682889 0.71736395 -1.9920001
-0.77148473 0.71736395 -1.9920001
-0.76792192 0.71736395 -1.9920001
-0.76257771 0.71736395 -1.9920001
-0.7572335 0.71736395 -1.9920001
-0.75188929 0.71736395 -1.9920001
-0.74654508 0.71736395 -1.9920001
-0.74298233 0.71736395 -1.9920001
-0.73763812 0.71736395 -1.9920001
-0.7322939 0.71736395 -1.9920001
-0.72694969 0.71736395 -1.9920001
-0.72160548 0.71736395 -1.9920001
-0.71804267 0.71736395 -1.9920001
-0.67172629 0.71736395 -1.9920001
-0.66816348 0.71736395 -1.9920001
-0.66460067 0.71736395 -1.9920001
-0.85342914 0.72451597 -1.9920001
-0.84808493 0.72272801 -1.9920001
-0.84274071 0.72272801 -1.9920001
-0.83799028 0.72213197 -1.9920001
-0.7762351 0.72213197 -1.9920001
-0.77148473 0.72272801 -1.9920001
-0.76792192 0.72272801 -1.9920001
-0.76257771 0.72272795 -1.9920001
-0.7572335 0.72272801 -1.9920001
-0.75188929 0.72272795 -1.9920001
-0.74654508 0.72272801 -1.9920001
-0.74298233 0.72272801 -1.9920001
-0.73763812 0.72272801 -1.9920001
-0.7322939 0.72272801 -1.9920001
-0.72694969 0.72272801 -1.9920001
-0.72160548 0.72272801 -1.9920001
-0.71804267 0.72272801 -1.9920001
-0.67172629 0.72272801 -1.9920001
-0.66816348 0.72272801 -1.9920001
-0.66460067 0.72272801 -1.9920001
-0.86055475 0.72809201 -1.9920001
-0.85699195 0.72809201 -1.9920001
-0.85342914 0.72809201 -1.9920001
-0.84808493 0.72809201 -1.9920001
-0.84274071 0.72809201 -1.9920001
-0.83917791 0.72809201 -1.9920001
-0.76257771 0.72809201 -1.9920001
-0.7572335 0.72809201 -1.9920001
-0.75188929 0.72809201 -1.9920001
-0.73763812 0.72809201 -1.9920001
-0.7322939 0.72809201 -1.9920001
-0.72694969 0.72809201 -1.9920001
-0.72160548 0.72809201 -1.9920001
-0.71804267 0.72809201 -1.9920001
-0.67528909 0.72809201 -1.9920001
-0.67172629 0.72809201 -1.9920001
-0.66816348 0.72809201 -1.9920001
-0.66460067 0.72809201 -1.9920001
-0.86055475 0.73166806 -1.9920001
-0.85699195 0.73166806 -1.9920001
-0.85342914 0.73166806 -1.9920001
-0.84808493 0.73166806 -1.9920001
-0.84274071 0.73166806 -1.9920001
-0.83917791 0.73166806 -1.9920001
-0.76079631 0.73166806 -1.9920001
-0.7572335 0.73166806 -1.9920001
-0.75188929 0.73166806 -1.9920001
-0.73763812 0.73166806 -1.9920001
-0.7322939 0.73166806 -1.9920001
-0.72694969 0.73166806 -1.9920001
-0.72160548 0.73166806 -1.9920001
-0.71804267 0.73166806 -1.9920001
-0.71447986 0.73166806 -1.9920001
-0.6788519 0.73166806 -1.9920001
-0.67172629 0.73166806 -1.9920001
-0.66816348 0.73166806 -1.9920001
-0.86233616 0.73524404 -1.9920001
-0.85699195 0.73524404 -1.9920001
-0.85342914 0.73524404 -1.9920001
-0.84808493 0.73524404 -1.9920001
-0.84274071 0.73524404 -1.9920001
-0.83917791 0.73524404 -1.9920001
-0.7821731 0.73524404 -1.9920001
-0.77682889 0.73524404 -1.9920001
-0.77148473 0.73524404 -1.9920001
-0.76792192 0.73524404 -1.9920001
-0.76257771 0.73524404 -1.9920001
-0.7572335 0.73524404 -1.9920001
-0.75367069 0.73524404 -1.9920001
-0.73763812 0.73524404 -1.9920001
-0.7322939 0.73524404 -1.9920001
-0.72694969 0.73524404 -1.9920001
-0.72160548 0.73524404 -1.9920001
-0.71804267 0.73524404 -1.9920001
-0.71447986 0.73524404 -1.9920001
-0.6770705 0.73524404 -1.9920001
-0.67172629 0.73524404 -1.9920001
-0.66816348 0.73524404 -1.9920001
-0.78139704 0.6991775 -1.9810001
-0.78139704 0.70273376 -1.9810001
-0.76013827 0.70273376 -1.9810001
-0.7920264 0.70984632 -1.9810001
-0.78848332 0.70984632 -1.9810001
-0.78316861 0.70806819 -1.9810001
-0.76013827 0.70629007 -1.9810001
-0.80797052 0.71340257 -1.9810001
-0.80265582 0.71340257 -1.9810001
-0.79734111 0.71340257 -1.9810001
-0.7920264 0.71340257 -1.9810001
-0.78848332 0.71340257 -1.9810001
-0.78316861 0.71340257 -1.9810001
-0.82745773 0.71695888 -1.9810001
-0.82214302 0.71695888 -1.9810001
-0.81682831 0.71695888 -1.9810001
-0.81328517 0.71695888 -1.9810001
-0.80797052 0.71695888 -1.9810001
-0.80265582 0.71695888 -1.9810001
-0.79734111 0.71695888 -1.9810001
-0.7920264 0.71695888 -1.9810001
-0.78848332 0.71695888 -1.9810001
-0.78316861 0.71695888 -1.9810001
-0.77785391 0.71695888 -1.9810001
-0.8310008 0.72229326 -1.9810001
-0.82745773 0.72229326 -1.9810001
-0.82214302 0.72229326 -1.9810001
-0.81682831 0.72229326 -1.9810001
-0.81328517 0.72229326 -1.9810001
-0.80797052 0.72229326 -1.9810001
-0.80265582 0.72229326 -1.9810001
-0.79734111 0.72229326 -1.9810001
-0.7920264 0.72229326 -1.9810001
-0.78848332 0.72229326 -1.9810001
-0.78316861 0.72229326 -1.9810001
-0.77785391 0.72229326 -1.9810001
-0.77312982 0.72288597 -1.9810002
-0.76722455 0.72407138 -1.9810001
-0.76368141 0.72407138 -1.9810001
-0.74242264 0.72407138 -1.9810001
-0.7388795 0.72407138 -1.9810001
-0.8310008 0.72762769 -1.9810001
-0.82745773 0.72762769 -1.9810001
-0.82214302 0.72762769 -1.9810001
-0.81682831 0.72762769 -1.9810001
-0.81328517 0.72762769 -1.9810001
-0.80797052 0.72762769 -1.9810001
-0.80265582 0.72762769 -1.9810001
-0.79734111 0.72762769 -1.9810001
-0.7920264 0.72762769 -1.9810001
-0.78848332 0.72762769 -1.9810001
-0.78316861 0.72762769 -1.9810001
-0.77785391 0.72762769 -1.9810001
-0.77253926 0.72762769 -1.9810001
-0.76722455 0.72762769 -1.9810001
-0.76190984 0.72762769 -1.9810001
-0.74242264 0.72762769 -1.9810001
-0.7388795 0.72762769 -1.9810001
-0.8310008 0.73118395 -1.9810001
-0.82745773 0.73118395 -1.9810001
-0.82214302 0.73118395 -1.9810001
-0.81682831 0.73118395 -1.9810001
-0.81328517 0.73118395 -1.9810001
-0.80797052 0.73118395 -1.9810001
-0.80265582 0.73118395 -1.9810001
-0.79734111 0.73118395 -1.9810001
-0.7920264 0.73118395 -1.9810001
-0.78848332 0.73118395 -1.9810001
-0.78316861 0.73118395 -1.9810001
-0.74596578 0.73118395 -1.9810001
-0.74242264 0.73118395 -1.9810001
-0.7388795 0.73118395 -1.9810001
-0.40422577 0.46986225 -1.273
-0.40263805 0.46346417 -1.268
-0.40112612 0.46649927 -1.268
-0.39696833 0.46801677 -1.268
-0.39205462 0.46725804 -1.268
-0.38789678 0.46687862 -1.268
-0.38336101 0.46801677 -1.268
-0.37769133 0.4680168 -1.268
-0.37202156 0.46801677 -1.268
-0.36748579 0.46801677 -1.268
-0.40105036 0.4593693 -1.263
-0.39766195 0.46277028 -1.263
-0.39314407 0.46390396 -1.263
-0.38749671 0.46163663 -1.263
-0.38184935 0.46390396 -1.263
-0.37733144 0.46390396 -1.263
-0.37281358 0.46390396 -1.263
-0.36829567 0.46390396 -1.263
-0.36490726 0.46390396 -1.263
-0.36151886 0.46617129 -1.263
-0.35700095 0.46617129 -1.263
-0.35248306 0.46617129 -1.263
-0.34909466 0.46617129 -1.263
-0.40428379 0.45565429 -1.2590001
-0.39865434 0.45678437 -1.2590001
-0.38626948 0.45791444 -1.2590001
-0.38401768 0.45791444 -1.2590001
-0.39527664 0.46017459 -1.2590001
-0.39189893 0.46017459 -1.2590001
-0.3817659 0.46017459 -1.2590001
-0.37726232 0.46017462 -1.2590001
-0.37163284 0.46017459 -1.2590001
-0.36712927 0.46017459 -1.2590001
-0.36149979 0.46243474 -1.2590001
-0.35812211 0.46243474 -1.2590001
-0.35249263 0.46243474 -1.2590001
-0.34686315 0.46356481 -1.2590001
-0.34235954 0.46469489 -1.2590001
-0.33785599 0.46469489 -1.2590001
-0.33335239 0.46469489 -1.2590001
-0.32884884 0.46469489 -1.2590001
-0.40267822 0.45159355 -1.2540001
-0.39707109 0.45271915 -1.2540001
-0.3925854 0.45384473 -1.2540001
-0.3880997 0.45384473 -1.2540001
-0.3824926 0.45384473 -1.2540001
-0.37688547 0.45384473 -1.2540001
-0.37239975 0.45384473 -1.2540001
-0.36791408 0.45384473 -1.2540001
-0.36454979 0.45384473 -1.2540001
-0.3925854 0.4560959 -1.2540001
-0.3880997 0.4560959 -1.2540001
-0.38024974 0.4560959 -1.2540001
-0.37688547 0.4560959 -1.2540001
-0.37239975 0.4560959 -1.2540001
-0.36791408 0.4560959 -1.2540001
-0.36230692 0.45722148 -1.2540001
-0.35669982 0.45834705 -1.2540001
-0.35221416 0.45834705 -1.2540001
-0.34772843 0.45834705 -1.2540001
-0.34324276 0.45834705 -1.2540001
-0.33875704 0.45834705 -1.2540001
-0.34324276 0.46059823 -1.2540001
-0.33763561 0.46059823 -1.2540001
-0.33202851 0.46059823 -1.2540001
