# .PCD v0.7 - Point Cloud Data file format
VERSION 0.7
FIELDS x y z
SIZE 4 4 4
TYPE F F F
COUNT 1 1 1
WIDTH 1353
HEIGHT 1
VIEWPOINT 0 0 0 1 0 0 0
POINTS 1353
DATA ascii
0.35342893 0.10267236 -0.81500012
0.35692728 0.10336187 -0.81550002
0.30364606 0.10519096 -0.81833339
0.30788031 0.1073718 -0.81877792
0.31267038 0.10796586 -0.81820005
0.31722021 0.10810131 -0.81811124
0.32223171 0.10806511 -0.81783354
0.3270621 0.10757367 -0.81728584
0.33237618 0.10782186 -0.81700015
0.3374908 0.10824803 -0.81700003
0.34326121 0.10875332 -0.81566668
0.3475982 0.10842018 -0.81500006
0.35278103 0.10817634 -0.81500006
0.35634425 0.10915171 -0.81500006
0.33905044 0.11115769 -0.81900007
0.34271249 0.11115769 -0.81900007
0.34837636 0.11134317 -0.81820005
0.35253441 0.11175709 -0.81800002
0.35743555 0.11223924 -0.81750005
0.36218625 0.11352698 -0.81700003
0.36727679 0.11354095 -0.81500006
0.37290353 0.11236525 -0.81575
0.37716454 0.11269619 -0.81550002
0.38258237 0.11354096 -0.81500006
0.38768423 0.11354095 -0.81500006
0.39278603 0.11354096 -0.81500006
0.36395249 0.11556847 -0.81900007
0.36792842 0.11619858 -0.81900012
0.37237525 0.11593604 -0.81900007
0.37713593 0.11630361 -0.81900012
0.38226277 0.1163036 -0.81900012
0.38740125 0.11607764 -0.81814301
0.39260358 0.11692113 -0.81816673
0.39726704 0.11694964 -0.8172223
0.4025197 0.11830857 -0.81760007
0.40750548 0.11891764 -0.81675005
0.41274619 0.11968627 -0.81700009
0.41566867 0.11968627 -0.81700003
0.42266834 0.11939327 -0.81500006
0.40936211 0.12144952 -0.81900007
0.41199881 0.12203761 -0.81900007
0.41751021 0.1218155 -0.81775004
0.42286757 0.12232844 -0.8175
0.42754725 0.12267613 -0.81736374
0.43234617 0.12265535 -0.81722236
0.43684223 0.12295528 -0.81800014
-0.16033854 0.027813593 -0.81100005
-0.1574375 0.029269492 -0.81100005
-0.15207058 0.028832719 -0.81099999
-0.14728388 0.028541543 -0.81099999
-0.14191698 0.028832722 -0.81099999
-0.13713026 0.029269492 -0.81100005
-0.13422921 0.029997442 -0.81100005
-0.16177259 0.031530913 -0.81300008
-0.15782575 0.032260653 -0.81300008
-0.15269013 0.032250956 -0.8127501
-0.1474655 0.032221869 -0.81199998
-0.14244086 0.032964543 -0.81233335
-0.13731854 0.032955527 -0.8121112
-0.13304232 0.033112418 -0.81150001
-0.1291524 0.03436514 -0.81100005
-0.11972404 0.03436514 -0.81100005
-0.13674138 0.035909381 -0.81300002
-0.1323791 0.036639124 -0.81300008
-0.12752527 0.036484398 -0.8118571
-0.12208703 0.036605999 -0.81225002
-0.11856519 0.035909381 -0.81300002
-0.092164189 0.040188737 -0.81100005
-0.087247111 0.041357689 -0.8125
-0.082145996 0.042442851 -0.81233335
-0.077596948 0.042985879 -0.81225002
-0.072701529 0.043172594 -0.81233329
-0.067616373 0.04317259 -0.81233341
-0.062506095 0.043446299 -0.8120001
-0.057398908 0.043137163 -0.81166667
-0.052307628 0.043128006 -0.81150001
-0.047379456 0.043282524 -0.81099999
-0.043209214 0.044192463 -0.81100005
-0.037769776 0.044556435 -0.81100005
-0.03341822 0.044556435 -0.81100005
-0.026890889 0.044556435 -0.81100005
-0.27275366 0.048924133 -0.81100005
-0.26864386 0.048438832 -0.81100005
-0.052403864 0.046125807 -0.81300002
-0.046951011 0.04649068 -0.81300002
-0.042522211 0.046943594 -0.8127144
-0.037282478 0.046995439 -0.81225008
-0.032738149 0.047534466 -0.81211114
-0.027655426 0.047537722 -0.81216663
-0.022557864 0.047508456 -0.81166673
-0.017766081 0.047795612 -0.81160003
-0.01239589 0.04847905 -0.81166673
-0.28142387 0.053423256 -0.81300008
-0.27772251 0.052494496 -0.81300008
-0.27247566 0.051922347 -0.81233341
-0.26736239 0.051552299 -0.81225002
-0.26248816 0.053067442 -0.8120001
-0.25758824 0.053765666 -0.81185716
-0.254042 0.053583007 -0.81100005
-0.021140823 0.050504275 -0.81300002
-0.017505586 0.050504275 -0.81300002
-0.013870348 0.050504275 -0.81300002
0.073920108 0.05474773 -0.81100005
0.077546403 0.05474773 -0.81100005
0.082623221 0.054019786 -0.81100005
0.087408163 0.054200925 -0.81214297
0.092833146 0.054053534 -0.81149995
0.097853653 0.054019779 -0.81100005
0.10184258 0.054383755 -0.81100005
0.10728202 0.05474773 -0.81100005
0.11235883 0.05474773 -0.81100005
0.11743565 0.05474773 -0.81100005
0.12178719 0.05474773 -0.81100005
-0.2610665 0.056342233 -0.81300002
-0.25699505 0.056634128 -0.81300002
-0.25379604 0.057801723 -0.81300008
0.074065164 0.057368349 -0.81100005
0.077546403 0.057659533 -0.81099999
0.081966475 0.057706926 -0.81166673
0.086643972 0.057254419 -0.81300008
0.092569411 0.056926031 -0.81300002
0.097610272 0.05731523 -0.81300008
0.10224953 0.057384729 -0.81300008
0.10754658 0.057071976 -0.81300008
0.11263593 0.05707198 -0.81300008
0.11781823 0.05761864 -0.81227279
0.12264633 0.057723921 -0.81188893
0.12716264 0.058078177 -0.81174999
0.13229737 0.058512308 -0.81128573
0.13788794 0.058824252 -0.81100005
0.14245707 0.058751456 -0.81100005
0.14717126 0.059115432 -0.81100005
0.15224807 0.059115432 -0.81100005
0.1573249 0.059115432 -0.81100005
0.16240169 0.059115432 -0.81100005
0.1674785 0.059115432 -0.81100005
-0.39532244 0.06493903 -0.81100005
-0.39387193 0.06493903 -0.81100005
0.078029916 0.06154193 -0.81100005
0.08215636 0.061902605 -0.81174999
0.12717687 0.060720704 -0.81300008
0.13226619 0.060720704 -0.81300002
0.13735554 0.060720704 -0.81300008
0.14244486 0.060720704 -0.81300002
0.14753419 0.060720704 -0.81300008
0.15272057 0.061260849 -0.81185728
0.1577543 0.061699182 -0.81214297
0.16285484 0.061993193 -0.81227279
0.16775385 0.062130399 -0.81233341
0.17237441 0.061974496 -0.81220001
0.17716791 0.062411632 -0.81220007
0.18239379 0.061789479 -0.81211114
0.18763493 0.061490685 -0.81214297
0.19237423 0.061375763 -0.81200004
0.19750595 0.06212008 -0.81220007
0.20245664 0.062807366 -0.81166667
0.20736775 0.062755175 -0.81099999
0.21244457 0.062755182 -0.81100005
0.21708623 0.063191943 -0.81100005
0.2229608 0.063847102 -0.81100005
0.22719149 0.064453728 -0.81100005
0.23275182 0.064939037 -0.81100005
0.23710339 0.064939037 -0.81100005
0.24218018 0.06493903 -0.81100005
0.24580647 0.06493903 -0.81100005
-0.4011364 0.067658611 -0.81220001
-0.39783931 0.067300856 -0.81140006
0.081273682 0.065747052 -0.81200004
0.20278981 0.065099172 -0.81300008
0.2071521 0.065828919 -0.81300008
0.21224141 0.065828919 -0.81300008
0.21733075 0.065828919 -0.81300008
0.2221085 0.065933168 -0.81300008
0.22750942 0.066558659 -0.81300008
0.233035 0.066850558 -0.81300002
0.23768809 0.067288414 -0.81300008
0.24277741 0.067045152 -0.81300008
0.2476629 0.067233831 -0.81233346
0.25233379 0.067122877 -0.81099999
0.25741065 0.067850828 -0.81100005
0.26248744 0.06857878 -0.81099999
0.26756424 0.06857878 -0.81100005
0.27264106 0.06857878 -0.81099999
0.27771789 0.069306724 -0.81100005
0.28279468 0.069306724 -0.81100005
0.28714621 0.069306724 -0.81100005
-0.40502191 0.073856108 -0.81300002
-0.4015305 0.072247609 -0.81133336
-0.39880368 0.072509706 -0.81100005
0.24859381 0.070937127 -0.81300002
0.25222903 0.070937127 -0.81300008
0.25731838 0.070937127 -0.81300002
0.26240772 0.070937127 -0.81300008
0.26804233 0.071849316 -0.81300008
0.27258638 0.072396621 -0.81300008
0.27767569 0.071666881 -0.81300008
0.28276503 0.071666881 -0.81300008
0.28744084 0.071537703 -0.8127144
0.29149166 0.072535433 -0.81250012
-0.40502191 0.077504836 -0.81300002
-0.4019734 0.077338681 -0.81125003
-0.39894873 0.077314168 -0.81099999
0.2939131 0.075802103 -0.81300008
0.29512408 0.079498023 -0.81100005
-0.40502191 0.082613051 -0.81300008
-0.40217137 0.082770526 -0.81275004
-0.39780906 0.082201838 -0.81100005
0.29512408 0.08168187 -0.81100005
-0.40502191 0.085532025 -0.81300002
-0.40190598 0.086574525 -0.81300008
-0.39726278 0.087614857 -0.81199998
-0.39262864 0.088649385 -0.81100005
-0.38903686 0.089204013 -0.81100005
0.29694027 0.086156569 -0.81200004
-0.39702439 0.091369987 -0.81300002
-0.39246383 0.092696801 -0.81300008
-0.38704348 0.092703804 -0.81188887
-0.38255787 0.093474656 -0.81100005
-0.37864149 0.094057016 -0.81100005
0.29876009 0.09355922 -0.81300002
-0.38757277 0.095748454 -0.81300008
-0.38248345 0.095748454 -0.81300002
-0.3767764 0.095591426 -0.81166673
-0.37211415 0.095512912 -0.81100005
0.29899859 0.096156441 -0.81233335
0.30153775 0.098060183 -0.81199998
0.30745351 0.099152669 -0.81100005
0.32776073 0.099880613 -0.81100005
0.33283758 0.099880621 -0.81100005
0.33646384 0.099880613 -0.81100005
0.34444168 0.099880613 -0.81100005
0.30360708 0.10109992 -0.81300008
0.30757096 0.10192005 -0.8127501
0.31255525 0.1023133 -0.81214303
0.31763121 0.1020691 -0.81185728
0.32272974 0.10280044 -0.81233341
0.32802376 0.10176884 -0.81300008
0.33233061 0.10284998 -0.81260014
0.33741593 0.10315587 -0.81281829
0.34208342 0.10272393 -0.81159991
0.34732687 0.10319187 -0.81300014
0.35159224 0.1040189 -0.81300008
0.3586688 0.10392159 -0.81300002
0.36237675 0.10414052 -0.81300002
0.39424485 0.1036489 -0.81200004
0.39520982 0.10424831 -0.81100005
0.41363358 0.10450539 -0.81300002
0.33899006 0.10645138 -0.81300008
0.34201941 0.10632975 -0.81300002
0.34747225 0.10596488 -0.81300002
0.35256159 0.10596488 -0.81300002
0.35784921 0.10729169 -0.81300008
0.36274028 0.10742438 -0.81300008
0.36710256 0.10742438 -0.81300008
0.37219191 0.10815412 -0.81300008
0.37728119 0.10815412 -0.81300008
0.38237056 0.10742438 -0.81300008
0.38727814 0.10760681 -0.81300008
0.39264581 0.10766377 -0.81260008
0.3971878 0.10729246 -0.81099999
0.40101188 0.108616 -0.81100005
0.40844578 0.10697811 -0.81099999
0.41234696 0.10740533 -0.81128573
0.41637099 0.10762297 -0.81266677
0.35837799 0.11034336 -0.81300008
0.36274028 0.1110731 -0.81300008
0.36710256 0.11107309 -0.81300008
0.37001073 0.11034335 -0.81300002
0.37764472 0.11070823 -0.81300002
0.38237053 0.11107309 -0.81300008
0.38745987 0.1110731 -0.81300008
0.39279154 0.11131634 -0.81300008
0.39801446 0.11212213 -0.81228572
0.40192726 0.11317684 -0.8112222
0.40753919 0.11371166 -0.81099999
0.41261607 0.11225575 -0.81099999
0.41702333 0.11250528 -0.8113637
0.42256588 0.11367933 -0.81300008
0.42718324 0.11319267 -0.81250012
0.43190795 0.11327489 -0.81099999
0.40418196 0.11618131 -0.81300002
0.40828624 0.11635889 -0.81220007
0.41205919 0.11667168 -0.81133336
0.41716638 0.11761221 -0.81280005
0.42235813 0.11691105 -0.81300008
0.4274475 0.11764079 -0.81300008
0.43264112 0.11747288 -0.81183332
-0.15777272 0.024114231 -0.80900002
-0.15415537 0.024114231 -0.80900002
-0.13571593 0.023610257 -0.8083334
-0.13163798 0.022971282 -0.80528587
-0.12843686 0.023513293 -0.80500007
-0.15704925 0.026292693 -0.80900002
-0.15343189 0.026292693 -0.80900002
-0.13662419 0.026260491 -0.80800003
-0.13205247 0.027492963 -0.80736381
-0.12755679 0.027626019 -0.80550021
-0.12387753 0.027607821 -0.80500019
-0.13100432 0.031375777 -0.80900002
-0.12723657 0.032649476 -0.8085556
-0.1227366 0.032810852 -0.8085556
-0.09210372 0.037309282 -0.80540007
-0.087050103 0.037454981 -0.8058573
-0.08263728 0.03718387 -0.80580014
-0.077660263 0.03689583 -0.80554563
-0.072725266 0.03738597 -0.80633342
-0.067578785 0.038500544 -0.80611122
-0.062713161 0.039185364 -0.8053335
-0.057689786 0.038765039 -0.80560017
-0.05247714 0.038664088 -0.80575013
-0.047608241 0.038479317 -0.80566686
-0.042547803 0.039185364 -0.8053335
-0.037490338 0.039891411 -0.80500007
-0.033890873 0.039891411 -0.80500007
-0.086872607 0.04008963 -0.80900002
-0.082531795 0.04008963 -0.80900002
-0.077467501 0.04008963 -0.80900002
-0.072403207 0.04008963 -0.80900002
-0.06227462 0.041541938 -0.80900002
-0.045634802 0.041541938 -0.80900002
-0.042451534 0.042122863 -0.80900002
-0.037665658 0.042255256 -0.80875003
-0.032360073 0.04252062 -0.80785722
-0.027721694 0.042407047 -0.80700004
-0.022428166 0.042890351 -0.80700016
-0.017370112 0.042872339 -0.80666685
-0.012779693 0.043281689 -0.8053335
-0.0086946096 0.043504231 -0.80500007
-0.27135757 0.047351174 -0.80900002
-0.26810193 0.048077326 -0.80900002
-0.26362726 0.047501881 -0.80660009
-0.25734577 0.048273146 -0.80500013
-0.015972517 0.045898866 -0.80900002
-0.012627658 0.046411708 -0.80780011
0.059695251 0.048562177 -0.80500007
0.062574826 0.04856218 -0.80500007
0.066174284 0.048562177 -0.80500007
0.072653331 0.04856218 -0.80500007
0.077692583 0.048562177 -0.80500007
0.082731843 0.04856218 -0.80500007
0.087771088 0.048562177 -0.80500007
0.092810333 0.04856218 -0.80500007
0.097849593 0.048562177 -0.80500007
0.10072917 0.048562177 -0.80500007
0.12304586 0.04856218 -0.80500007
0.12736523 0.04856218 -0.80500007
-0.26195246 0.05025579 -0.80900002
-0.25739813 0.050698482 -0.8083334
0.059695255 0.051452439 -0.80500007
0.062574826 0.052174997 -0.80500025
0.067548849 0.052092299 -0.80593354
0.072505511 0.052156501 -0.8077274
0.077291422 0.051666684 -0.8083334
0.08208774 0.051168781 -0.80811113
0.087677829 0.050753459 -0.8070001
0.092563175 0.050924409 -0.80642867
0.097371027 0.050857704 -0.80700004
0.10261962 0.051450856 -0.8070001
0.10747457 0.051582664 -0.80700004
0.11247987 0.051561363 -0.80666679
0.11757811 0.051582668 -0.80700004
0.12266161 0.051795527 -0.80684638
0.12743445 0.052464999 -0.80684638
0.13231538 0.052532386 -0.80571449
0.13748208 0.052912567 -0.80522239
0.14238271 0.05280301 -0.80554563
0.14752397 0.052815277 -0.80572748
0.15249296 0.052057486 -0.80540025
0.15734981 0.052815281 -0.80572748
0.16255338 0.052803013 -0.80554563
0.16755722 0.053096086 -0.80580014
0.17247292 0.053200092 -0.80520022
0.17775774 0.053620126 -0.80500019
0.18236509 0.054053664 -0.80500013
0.18783626 0.054342695 -0.80500007
0.19215563 0.054342695 -0.80500007
0.064014614 0.055787817 -0.80500007
0.067468435 0.057311151 -0.80611122
0.071326248 0.057517335 -0.80900002
0.1279981 0.05606503 -0.80900002
0.1329788 0.056030378 -0.80850005
0.13753054 0.056744985 -0.8083334
0.1426153 0.056590509 -0.80820006
0.14734942 0.056721874 -0.80800009
0.15253262 0.056768082 -0.80866671
0.15746549 0.056721881 -0.80800003
0.16252354 0.056721877 -0.80800009
0.16784577 0.056971628 -0.80811113
0.17261545 0.057439532 -0.80788893
0.17755012 0.05740004 -0.80733341
0.18272732 0.057203978 -0.80660009
0.18758018 0.05737729 -0.8070001
0.19239138 0.05753674 -0.80720007
0.19747964 0.057317682 -0.80616683
0.20240161 0.057281543 -0.8056668
0.2072643 0.057417329 -0.80572748
0.21255897 0.057431813 -0.80525017
0.21739642 0.057245091 -0.8051669
0.22239113 0.05723295 -0.80500019
0.22732756 0.058058739 -0.80500019
0.23246965 0.058678076 -0.80500007
0.23750889 0.058678076 -0.80500007
0.24254815 0.058678076 -0.80500007
0.2461476 0.058678076 -0.80500007
-0.3907302 0.064052723 -0.80900002
-0.38711977 0.063815206 -0.80600011
0.069773756 0.060123205 -0.80500007
0.072924897 0.061462827 -0.80600011
0.076714084 0.063677818 -0.80733335
0.080249049 0.064052723 -0.80900002
0.17864102 0.060421951 -0.80900002
0.19889818 0.060421951 -0.80900002
0.20251554 0.060421951 -0.80900002
0.20757984 0.060421955 -0.80900002
0.21251136 0.060384609 -0.80850005
0.21743929 0.061073422 -0.80800003
0.22249734 0.061073419 -0.80800009
0.22780666 0.061636705 -0.80825007
0.23223691 0.061669279 -0.80820006
0.23727898 0.061965555 -0.80845451
0.24244909 0.061646529 -0.8077274
0.24750781 0.062454831 -0.80646682
0.25258905 0.063222036 -0.80580014
0.2576437 0.062925763 -0.80554563
0.26267752 0.063222028 -0.80580014
0.26772901 0.062925763 -0.80554563
0.27276608 0.063222028 -0.80580014
0.27781433 0.062925763 -0.80554563
0.28240919 0.063575402 -0.80525017
0.28718156 0.063736036 -0.80500019
0.29006112 0.063736029 -0.80500007
-0.39247781 0.067822754 -0.80850005
-0.38718775 0.067578688 -0.80528587
0.25749931 0.066231184 -0.80900002
0.26256359 0.066231184 -0.80900002
0.26762787 0.066231184 -0.80900002
0.27269217 0.066231184 -0.80900002
0.27741134 0.066874579 -0.80800009
0.28212154 0.066791818 -0.8070001
0.28733277 0.06705226 -0.80722231
0.29105034 0.067774221 -0.80575013
-0.39579448 0.072766572 -0.80900002
-0.39233524 0.072661191 -0.80783343
-0.38663861 0.072406799 -0.80500025
0.29340139 0.072292328 -0.80590928
0.29582024 0.073129356 -0.80500007
-0.39579448 0.077849664 -0.80900002
-0.39247009 0.077764116 -0.80811119
-0.38663858 0.077464744 -0.80500019
0.29438835 0.076932847 -0.80700004
0.29558411 0.077530101 -0.8056668
-0.39268556 0.082161821 -0.8085556
-0.38694468 0.082419962 -0.80590928
-0.38327909 0.0830044 -0.80500019
0.29572564 0.082358696 -0.80642867
-0.39116427 0.08569213 -0.80900002
-0.38687357 0.08759924 -0.80850005
-0.38285208 0.087564088 -0.80650008
-0.37835979 0.088664487 -0.80500007
0.29711908 0.087913185 -0.80540007
-0.38204855 0.090920433 -0.80900002
-0.37756634 0.091980241 -0.80766672
-0.37224072 0.092879444 -0.80500007
-0.36909831 0.09347713 -0.80600005
0.29884276 0.09218365 -0.80733347
0.30199075 0.09377405 -0.80500019
0.30733854 0.094806284 -0.80500007
0.31237781 0.094806284 -0.80500007
0.31741706 0.094806284 -0.80500007
0.33757406 0.094806284 -0.80500007
-0.37264344 0.095277362 -0.80900002
0.30206063 0.096101642 -0.80860007
0.30798882 0.097013906 -0.80733341
0.31243086 0.097941875 -0.8070001
0.31748292 0.097941421 -0.8070001
0.32238999 0.09779691 -0.8070001
0.32758576 0.097216688 -0.80700004
0.33263749 0.097216688 -0.80700004
0.33783847 0.097752519 -0.80677789
0.341663 0.099150181 -0.80900002
0.39857602 0.10544352 -0.80900002
0.40250343 0.10741451 -0.80900007
0.40689594 0.10943738 -0.80900002
0.40291685 0.11125277 -0.80900002
0.40725768 0.11125277 -0.80900002
-0.13218702 0.019610774 -0.80300003
-0.1278784 0.019610774 -0.80300003
-0.13218702 0.021052312 -0.80300003
-0.12674709 0.022183849 -0.80220002
-0.12341678 0.023905579 -0.80200005
-0.09174408 0.02962756 -0.80100006
-0.08744619 0.02962756 -0.80100006
-0.083148286 0.02962756 -0.80100006
-0.095325664 0.033222429 -0.80100006
-0.092588261 0.032549739 -0.80211115
-0.087591752 0.032558754 -0.80233347
-0.082569189 0.032558754 -0.80233341
-0.0777537 0.032694504 -0.80245471
-0.072493941 0.033264801 -0.80200005
-0.067924164 0.033490337 -0.80166674
-0.062375121 0.033941403 -0.80100006
-0.057667896 0.033325143 -0.80100006
-0.052346699 0.033941403 -0.80100006
-0.047332481 0.033941403 -0.80100006
-0.042318266 0.033941403 -0.80100006
-0.29875946 0.039693192 -0.80100006
-0.09556368 0.036188457 -0.80300003
-0.092691265 0.035467692 -0.80300009
-0.088382632 0.035467692 -0.80300009
-0.07114812 0.035467688 -0.80300003
-0.067126743 0.035755996 -0.80300009
-0.062530868 0.036188457 -0.80300009
-0.057504129 0.035948202 -0.80300009
-0.052836452 0.035828073 -0.80300003
-0.047450665 0.035467688 -0.80300003
-0.042423934 0.036188457 -0.80300009
-0.037366152 0.036879778 -0.80233347
-0.032160703 0.038136102 -0.80225009
-0.027309678 0.039023772 -0.80200005
-0.022281136 0.039726228 -0.80166674
-0.016817411 0.039405603 -0.80100006
-0.012591146 0.039333705 -0.80100006
-0.0086514074 0.039693192 -0.80100006
-0.26216397 0.044116914 -0.80300003
-0.011306059 0.041714352 -0.80300009
-0.0089123761 0.041714352 -0.80300009
0.052951783 0.044007033 -0.80100006
0.057618707 0.043437865 -0.80185723
0.061905738 0.043647546 -0.80100006
0.067278109 0.044007033 -0.80100006
0.07229232 0.044007033 -0.80100006
0.077306531 0.044007033 -0.80100006
0.080888115 0.044007033 -0.80100006
-0.26120651 0.046038967 -0.80300009
-0.25759846 0.046377987 -0.80220002
0.049370203 0.047601901 -0.80100006
0.052301876 0.047661331 -0.80200005
0.057084873 0.04751483 -0.80300021
0.062419355 0.046279222 -0.80300009
0.06769903 0.046688985 -0.80260003
0.072382569 0.046222489 -0.80200005
0.077403054 0.046222486 -0.80200005
0.082423523 0.046222489 -0.80200005
0.087443992 0.046222486 -0.80200005
0.092464469 0.046222489 -0.80200005
0.097259082 0.046469048 -0.80211115
0.10271689 0.046777241 -0.80225009
0.10730141 0.047428872 -0.80211115
0.11257444 0.047818091 -0.80220002
0.11771342 0.048441529 -0.80300003
0.1299212 0.048441529 -0.80300003
0.13294785 0.048969883 -0.80220002
0.13764873 0.049101971 -0.80200005
0.14284846 0.048784964 -0.80185723
0.14711127 0.048055757 -0.80188894
0.152327 0.047773559 -0.80214292
0.15724188 0.048217438 -0.80225003
0.16208373 0.049117059 -0.80225003
0.16743393 0.048990387 -0.80185723
0.1720603 0.049570631 -0.80260003
0.17731611 0.049883068 -0.80300009
0.18200089 0.049789883 -0.80150008
0.18761924 0.049758822 -0.80100006
0.053190555 0.051676087 -0.80100006
0.056933891 0.052883293 -0.80260003
0.17372559 0.051324602 -0.80300003
0.17731611 0.051324602 -0.80300009
0.18265063 0.051942404 -0.80300009
0.18736959 0.052045371 -0.80300009
0.1925284 0.052257221 -0.80255562
0.19741833 0.052883301 -0.80233335
0.20268577 0.053571101 -0.80271441
0.20759055 0.053308848 -0.80185723
0.21258341 0.053533558 -0.80214292
0.21762972 0.053308848 -0.80185723
0.22262616 0.053533558 -0.80214292
0.22768311 0.053638361 -0.80166674
0.23274717 0.054072663 -0.80100006
0.23776136 0.054072663 -0.80100006
0.24277559 0.054072663 -0.80100006
0.24635714 0.054072663 -0.80100006
-0.37898687 0.059824456 -0.80100006
0.058682315 0.05551061 -0.80100006
0.062540583 0.057396472 -0.80225003
0.066368937 0.059613444 -0.80300003
0.20891273 0.055649217 -0.80300003
0.21034893 0.055649217 -0.80300003
0.22471103 0.055649217 -0.80300003
0.22758345 0.056009602 -0.80300003
0.2326102 0.056369986 -0.80300003
0.23763691 0.056369986 -0.80300009
0.24251166 0.056335337 -0.80250001
0.24819206 0.057027429 -0.80209094
0.25274083 0.058624562 -0.80245465
0.25785595 0.058309775 -0.80172729
0.26262245 0.059000425 -0.80200005
0.26782551 0.059066791 -0.80185723
0.27283984 0.05929355 -0.80214292
0.27750477 0.059180167 -0.80200005
0.28227091 0.059250876 -0.80157155
0.28700739 0.059502311 -0.80150008
0.29005244 0.059824456 -0.80100006
-0.38232684 0.063337415 -0.80300009
-0.3789869 0.062700346 -0.80100006
0.06790068 0.062238052 -0.80200005
0.072069541 0.063898019 -0.80250001
0.2828775 0.061415363 -0.80300003
0.28718615 0.061415363 -0.80300003
0.29228076 0.062810652 -0.80240005
0.29508528 0.064298436 -0.80300003
-0.38262606 0.067001328 -0.80300003
-0.3786287 0.067733161 -0.80100006
0.072353683 0.065630823 -0.80166674
0.075968623 0.066377081 -0.80200005
0.29307458 0.066893212 -0.80300009
0.2956509 0.067977361 -0.80220002
-0.38208747 0.072226904 -0.80300003
-0.37864324 0.07240551 -0.80157155
0.29660225 0.072158769 -0.80225003
-0.38208747 0.077272289 -0.80300009
-0.37816823 0.077490672 -0.80100006
0.29678181 0.077739798 -0.80225003
-0.38136935 0.080876127 -0.80300003
-0.37826452 0.082667761 -0.80220002
0.29692504 0.082567982 -0.8024286
-0.37706074 0.086642273 -0.80300003
-0.3728697 0.087764874 -0.80140001
0.29809579 0.087031215 -0.80260003
0.30008087 0.088583402 -0.80100006
-0.37216184 0.090550311 -0.80250001
-0.36811429 0.0911569 -0.80150008
-0.36466056 0.091459297 -0.80100006
0.29939392 0.090246119 -0.80300003
0.30252126 0.091242537 -0.80225003
0.30703795 0.092572562 -0.80233335
0.31203261 0.093705811 -0.80300009
0.31733546 0.093713865 -0.80271429
0.32232377 0.093614466 -0.80185723
0.32735753 0.093853526 -0.80214292
0.33231509 0.093975708 -0.80100006
0.33529916 0.094570734 -0.80300003
-0.12525438 0.018819431 -0.80000001
-0.12221403 0.019094788 -0.79650009
-0.11893334 0.01943982 -0.79600006
-0.12525438 0.02097366 -0.80000001
-0.12218931 0.021656182 -0.79866672
-0.11878008 0.022090403 -0.79880005
-0.11262844 0.022501903 -0.79600012
-0.10736586 0.022476384 -0.79600006
-0.10284566 0.022583557 -0.79600006
-0.097578004 0.023012249 -0.79600012
-0.092595086 0.023726735 -0.79600006
-0.087612174 0.023726737 -0.79600012
-0.082629263 0.023726735 -0.79600006
-0.11158706 0.025739936 -0.79640001
-0.10770144 0.027338129 -0.79716671
-0.10272174 0.02734158 -0.79725015
-0.097448871 0.027583487 -0.79828584
-0.092786059 0.026794612 -0.79866666
-0.087634191 0.026822884 -0.79879993
-0.082548365 0.026794612 -0.79866672
-0.07785859 0.027376011 -0.79816675
-0.072945572 0.027636562 -0.79685724
-0.06795679 0.028453629 -0.79685724
-0.062688529 0.028522849 -0.79688895
-0.057487246 0.028186137 -0.79680008
-0.052426703 0.028626066 -0.79600012
-0.047748864 0.02944262 -0.79600012
-0.040630415 0.02944262 -0.79600006
-0.039206728 0.02944262 -0.79600006
-0.30120867 0.033097997 -0.79800004
-0.29761776 0.032328811 -0.79666668
-0.29404718 0.033729535 -0.79600006
-0.10754383 0.031228835 -0.79600006
-0.10200725 0.03198301 -0.79600006
-0.097683035 0.032287154 -0.7992
-0.075174846 0.031026725 -0.80000001
-0.07231316 0.031026727 -0.80000007
-0.06709481 0.031570163 -0.79920006
-0.06261605 0.031597897 -0.79885715
-0.05683247 0.03129844 -0.79960006
-0.052215993 0.03170602 -0.79900002
-0.047511958 0.03180306 -0.79885715
-0.042582147 0.031575222 -0.79828578
-0.037375897 0.032528669 -0.79836369
-0.032422107 0.032207794 -0.79720002
-0.02804108 0.032733053 -0.79657149
-0.023308864 0.033253215 -0.79600012
-0.017139541 0.033729535 -0.79600006
-0.012156627 0.033729535 -0.79600012
-0.0071737133 0.033729535 -0.79600006
-0.30177534 0.036031172 -0.79949999
-0.2978023 0.036879253 -0.7992
-0.29388854 0.035941038 -0.79750007
-0.26272601 0.039445419 -0.79600006
-0.10089995 0.035634827 -0.79600012
-0.097702809 0.036975112 -0.79820007
-0.032249533 0.035335179 -0.80000007
-0.027509268 0.036104847 -0.79885727
-0.022457218 0.03652947 -0.79780006
-0.017380659 0.036559485 -0.79818183
-0.012024036 0.036547191 -0.79900002
-0.0073917685 0.036575221 -0.79854542
-0.0029071853 0.035202675 -0.79700005
0.034825131 0.039445419 -0.79600006
0.037672512 0.038730934 -0.79600012
0.042655423 0.038730934 -0.79600006
0.047638338 0.039445423 -0.79600012
0.052621253 0.039445419 -0.79600006
0.057628885 0.038747452 -0.79633343
0.062665701 0.038780488 -0.79699999
0.067654885 0.038780488 -0.79700011
0.072597586 0.038755711 -0.79650003
0.077535816 0.038730934 -0.79600012
0.082518734 0.038730934 -0.79600006
0.087501645 0.038730934 -0.79600012
0.092484556 0.039445419 -0.79600006
0.097467475 0.039445423 -0.79600012
-0.26053157 0.040977087 -0.79800004
-0.25752041 0.042576324 -0.7984001
-0.097577997 0.042303361 -0.79600006
0.034825131 0.041588876 -0.79600006
0.037672512 0.042303365 -0.79600006
0.042754114 0.04240109 -0.79783338
0.047798727 0.042445879 -0.79866678
0.052283004 0.041926034 -0.79900008
0.05717821 0.041438825 -0.80000001
0.062847972 0.041524276 -0.79933333
0.06742797 0.04185643 -0.7991429
0.072506718 0.041636597 -0.79885727
0.077433139 0.04185643 -0.79914296
0.082602777 0.042151149 -0.79911113
0.087320797 0.042599171 -0.79909104
0.092585199 0.042309389 -0.79854542
0.097524159 0.042596858 -0.79880005
0.10258289 0.042309389 -0.79854542
0.10741635 0.042554349 -0.79800004
0.11260452 0.042375423 -0.79733342
0.11756261 0.042363606 -0.79711109
0.12229973 0.042473227 -0.7967273
0.1271435 0.043182719 -0.79640001
0.13234787 0.043732334 -0.79600006
0.1373308 0.043732338 -0.79600012
0.14231369 0.043732334 -0.79600006
0.14729661 0.043732338 -0.79600012
0.15014398 0.043732334 -0.79600006
0.15726244 0.043732338 -0.79600012
0.16224535 0.043732334 -0.79600006
0.16722827 0.043732338 -0.79600012
0.17221119 0.043017849 -0.79600006
0.17719409 0.043017849 -0.79600012
0.18110925 0.04337509 -0.79600006
0.18573622 0.043732334 -0.79600006
-0.25689203 0.045388248 -0.80000001
0.038621638 0.04563763 -0.79600012
0.042891752 0.047264513 -0.79773349
0.047579948 0.047530051 -0.7998001
0.10797316 0.045388248 -0.80000007
0.1122657 0.045747284 -0.80000001
0.11727364 0.046106324 -0.80000007
0.1225147 0.045938902 -0.79885727
0.12745902 0.046160273 -0.7991429
0.13251631 0.045938898 -0.79885715
0.1374642 0.046160277 -0.79914296
0.14231351 0.045791321 -0.79866672
0.14803681 0.045388248 -0.80000007
0.15275644 0.045303144 -0.79850006
0.15811406 0.045662183 -0.79850006
0.16246313 0.045922175 -0.79857147
0.16741921 0.04614355 -0.79885715
0.17273042 0.046444952 -0.79839993
0.17753123 0.046898853 -0.79879993
0.18271014 0.046728041 -0.79833341
0.18757713 0.046695523 -0.79777783
0.19218181 0.047392476 -0.79742873
0.19760919 0.048081368 -0.79700011
0.20284116 0.048235971 -0.79720002
0.2077512 0.04792323 -0.79654557
0.21238476 0.048586175 -0.79650003
0.21746416 0.048631664 -0.79600012
0.22269057 0.048211839 -0.79680002
0.22769649 0.04792323 -0.79654551
0.23278372 0.048235979 -0.79720002
0.23754419 0.048259653 -0.79733336
0.24262445 0.048906807 -0.79714292
0.24729499 0.048992604 -0.79633343
0.25193781 0.049448218 -0.79600006
-0.3723501 0.053735133 -0.79600006
0.043602299 0.051934414 -0.79657149
0.047745533 0.052421782 -0.79777777
0.051672168 0.053025223 -0.79966664
0.19883174 0.051132854 -0.80000001
0.20240888 0.051132854 -0.80000007
0.2074168 0.051132854 -0.80000001
0.21287197 0.051068936 -0.79900002
0.21760277 0.051005021 -0.79800004
0.22244069 0.051132854 -0.80000007
0.22768711 0.051611573 -0.80000007
0.23261479 0.051693562 -0.79914296
0.23751594 0.051898729 -0.7991429
0.24253389 0.051675297 -0.79885715
0.2477607 0.052352216 -0.79911119
0.25237519 0.052309304 -0.79800004
0.25744724 0.05241565 -0.79763639
0.26257634 0.052532952 -0.7974546
0.2675736 0.052243192 -0.79720002
0.27232102 0.052886296 -0.79755557
0.27732092 0.053303815 -0.79666674
0.28254712 0.053735133 -0.79600012
-0.37708291 0.059031688 -0.80000001
-0.37400857 0.057342213 -0.79650003
0.048350185 0.055164106 -0.79600006
0.053055041 0.056793608 -0.79716676
0.057606526 0.057879526 -0.79800004
0.061232269 0.059271049 -0.80000007
0.25248837 0.055441312 -0.80000007
0.25749633 0.055441312 -0.80000001
0.26279044 0.056015771 -0.80000001
0.26726079 0.056107413 -0.79925001
0.27253866 0.055977605 -0.79885715
0.27743676 0.056182258 -0.79885715
0.28218567 0.056199405 -0.79799998
0.28747168 0.05659407 -0.79781818
0.29248101 0.057749908 -0.79785734
0.29649928 0.058593638 -0.79600006
-0.37708291 0.06262207 -0.80000007
-0.37341788 0.062666208 -0.79600006
0.057960086 0.061237235 -0.79600006
0.062301673 0.062591672 -0.7978
0.066478699 0.063579507 -0.80000007
0.29432899 0.061109435 -0.79900002
0.29646549 0.062684178 -0.79850006
-0.37708291 0.066930525 -0.80000007
-0.37329924 0.067310371 -0.79600012
0.063695505 0.065565079 -0.79650009
0.067808427 0.067221008 -0.7972728
0.072082534 0.068251938 -0.79866672
0.076398984 0.068997502 -0.79900002
0.29721859 0.067361176 -0.79890913
0.30038422 0.069628321 -0.79800004
-0.37299716 0.072581679 -0.79699999
0.06899368 0.07088279 -0.79600006
0.071922079 0.072391711 -0.79688895
0.076239616 0.072431698 -0.79733342
0.29833409 0.072236381 -0.79742867
-0.37289703 0.077426925 -0.79716676
-0.36950272 0.07945662 -0.79600006
0.072099917 0.076858498 -0.79600006
0.076112129 0.075884193 -0.79600006
0.29814783 0.07765983 -0.79711109
-0.3725335 0.082785644 -0.79857147
-0.3683638 0.082600355 -0.79600006
0.29876122 0.082376339 -0.79857147
0.30122277 0.083297476 -0.79720008
-0.37152702 0.086007886 -0.79933333
-0.36746454 0.08702819 -0.79844451
-0.36300495 0.087946206 -0.79666668
-0.35953689 0.089459419 -0.79600006
0.29922926 0.086079225 -0.80000007
0.30289036 0.087276272 -0.79842871
0.30729967 0.087762356 -0.79709101
0.31249654 0.08832252 -0.79745454
0.31752387 0.088097885 -0.79660004
0.32261136 0.088307492 -0.79720002
0.32716724 0.088471979 -0.79675007
0.33035684 0.089684188 -0.79800004
-0.35678169 0.091360703 -0.79700005
-0.35170662 0.093031853 -0.79600006
0.30900669 0.091345109 -0.80000001
0.3125838 0.091345116 -0.80000007
0.317193 0.091230929 -0.79900002
0.32259971 0.091345116 -0.80000007
0.32787204 0.091586664 -0.79960001
0.3316932 0.092006102 -0.79949999
-0.35044938 0.095414437 -0.79800004
-0.34814739 0.095175304 -0.79600006
-0.34174079 0.099462219 -0.79600006
-0.33960524 0.099462219 -0.79600006
-0.34102893 0.10089119 -0.79600006
-0.33818156 0.1008912 -0.79600012
-0.12132086 0.017232073 -0.79300004
-0.11702619 0.01716193 -0.79272729
-0.11260428 0.017398972 -0.79307699
-0.10756566 0.018094601 -0.79266673
-0.10306737 0.018347502 -0.79285723
-0.097795926 0.019342134 -0.79200006
-0.11058722 0.021291485 -0.79400003
-0.10869373 0.020816358 -0.79400003
-0.10088311 0.020816358 -0.79400003
-0.097332828 0.02081636 -0.79400003
-0.092566274 0.02160839 -0.79314291
-0.087637 0.021858281 -0.7930001
-0.082317844 0.022213727 -0.79300004
-0.077353708 0.022926418 -0.7930001
-0.072436556 0.023652216 -0.79350007
-0.068756953 0.023607505 -0.79200006
-0.29706842 0.02860843 -0.79266679
-0.29398608 0.029294668 -0.79200006
-0.071060747 0.025092501 -0.79400003
-0.067193143 0.02565001 -0.79360002
-0.062551491 0.025667263 -0.79285723
-0.057424672 0.025029298 -0.79200006
-0.052533045 0.02577359 -0.7930001
-0.047575969 0.026489394 -0.79311115
-0.042784262 0.027770195 -0.79272729
-0.037347127 0.028471185 -0.79280007
-0.032676511 0.028620759 -0.7930001
-0.027712373 0.028620761 -0.7930001
-0.023191733 0.028820738 -0.79200006
-0.017761681 0.029294668 -0.79200006
-0.012803806 0.029294668 -0.79200006
-0.0071376646 0.029294668 -0.79200006
-0.29272953 0.031902581 -0.79320002
-0.28808388 0.034033969 -0.79200006
-0.28407034 0.034981832 -0.79200006
-0.25054568 0.0345079 -0.79200006
-0.10632688 0.033169657 -0.79400003
-0.10396002 0.033169657 -0.79400003
-0.027037263 0.030794023 -0.79400003
-0.02229489 0.031256225 -0.79366672
-0.017784107 0.031467929 -0.7930001
-0.01283614 0.031506713 -0.79400009
-0.0071520768 0.031487323 -0.79350007
-0.0030344455 0.032472733 -0.79320014
0.02785076 0.034413114 -0.79200006
0.03205315 0.034033969 -0.79200006
0.0374832 0.033560038 -0.79200006
0.042866033 0.033844396 -0.79200006
0.047398951 0.034270935 -0.79200006
0.052356824 0.034270935 -0.79200006
0.057031389 0.034413114 -0.79200006
0.062272571 0.034981832 -0.79200006
0.067230448 0.034981832 -0.79200006
0.072188318 0.034981832 -0.79200006
0.077854462 0.034981832 -0.79200006
0.082812339 0.034981832 -0.79200006
0.087770209 0.034981832 -0.79200006
0.092019811 0.034981832 -0.79200006
-0.29046813 0.035782859 -0.79400003
-0.28690341 0.036403622 -0.79200006
-0.28318727 0.03678295 -0.79250002
-0.26102579 0.03858586 -0.79300004
-0.25753 0.038016424 -0.79266673
-0.25281486 0.037712965 -0.79259998
-0.10704691 0.036978483 -0.79327279
-0.10256527 0.037547361 -0.79307699
-0.098042883 0.039346308 -0.79400003
-0.00076518266 0.036495548 -0.79400003
0.027762813 0.037672017 -0.79250002
0.032662075 0.037372705 -0.79400009
0.037577853 0.035782859 -0.79400009
0.042243943 0.035884671 -0.79400009
0.047498696 0.037192922 -0.79366672
0.052455086 0.037185255 -0.79350007
0.057459429 0.036495548 -0.79400003
0.062429823 0.036495548 -0.79400003
0.067400217 0.036495548 -0.79400003
0.072370611 0.036495548 -0.79400003
0.077341005 0.036495548 -0.79400003
0.082311399 0.036495548 -0.79400003
0.087281793 0.036495548 -0.79400003
0.092193201 0.037185255 -0.79350007
0.097336225 0.037399244 -0.7930001
0.1023862 0.038694497 -0.79314297
0.10677209 0.038737949 -0.79320014
0.11231627 0.038694493 -0.79314291
0.11725554 0.038652021 -0.7922858
0.12247533 0.039247207 -0.79200006
0.12530839 0.039247204 -0.79200006
-0.10185064 0.041323375 -0.79285729
-0.098279566 0.041246817 -0.79400003
0.028511811 0.041142926 -0.79200006
0.032255813 0.042545862 -0.79327279
0.12420472 0.040771689 -0.79400003
0.12811992 0.041212589 -0.79333347
0.13255823 0.041433033 -0.7930001
0.13752237 0.041433033 -0.79299998
0.14248651 0.041433036 -0.7930001
0.14711976 0.041526999 -0.79285729
0.15241477 0.042856619 -0.7930001
0.15718044 0.042090785 -0.79200006
0.16284658 0.042090785 -0.79200006
0.1679104 0.04140646 -0.79250008
0.18278436 0.042553414 -0.79400003
0.18724239 0.042874333 -0.79333341
0.19271407 0.043540046 -0.79250008
0.1975517 0.043512575 -0.79200006
0.20268004 0.042838305 -0.79266679
0.20684533 0.043056961 -0.79233348
0.21256697 0.044081297 -0.79200006
0.21738319 0.04493437 -0.79200006
0.22304934 0.043512575 -0.79200006
0.22729895 0.043512575 -0.79200006
0.23225681 0.043512575 -0.79200006
0.23721467 0.043512575 -0.79200006
0.24217257 0.044578917 -0.79200006
0.034693878 0.045701995 -0.79300004
0.037537802 0.047439639 -0.79314297
0.040418077 0.049323976 -0.79400003
0.19379023 0.045047835 -0.79400003
0.19734052 0.045047835 -0.79400003
0.2023109 0.045047835 -0.79400003
0.20728129 0.045047835 -0.79400003
0.21225169 0.04576052 -0.79400003
0.21722209 0.046473213 -0.79400003
0.2221925 0.045047835 -0.79400003
0.22716287 0.045047835 -0.79400003
0.23284332 0.045047835 -0.79400003
0.23809771 0.045617986 -0.79400009
0.24235807 0.046188138 -0.79400009
0.24804732 0.046870302 -0.79266679
0.25287905 0.048313402 -0.7930001
0.25772908 0.048440535 -0.79285723
0.26268566 0.048661396 -0.79314297
0.26765558 0.048440535 -0.79285723
0.27203336 0.048746511 -0.79233348
0.27546114 0.049199738 -0.79200006
-0.36929545 0.052786171 -0.79250008
0.038899735 0.050621528 -0.79200006
0.041512728 0.052975964 -0.79320014
0.2733165 0.050749358 -0.79400003
0.2778196 0.051139265 -0.79266679
0.28268716 0.052407254 -0.79320014
0.28777325 0.052449398 -0.79275012
0.29185957 0.05289435 -0.79257149
-0.37141454 0.057163574 -0.79400003
-0.36906248 0.057730481 -0.79200006
0.043968357 0.055025499 -0.79400003
0.047458798 0.056616154 -0.7930001
0.051392242 0.058907956 -0.79350001
0.29390812 0.055738188 -0.79400003
0.29529262 0.05630869 -0.79200006
-0.37141454 0.061439715 -0.79400003
-0.36906245 0.062706739 -0.79200006
0.053453617 0.060967747 -0.79250008
0.057356559 0.063462883 -0.79257149
-0.37141454 0.067141242 -0.79400003
-0.36937314 0.067741185 -0.79266679
0.062403876 0.067264855 -0.79266673
0.065980107 0.069279313 -0.79400003
-0.36795601 0.072482884 -0.79266679
0.06773372 0.072662577 -0.79314297
0.29837665 0.073433138 -0.79266679
-0.36735234 0.07746882 -0.79320008
0.068820328 0.077118911 -0.79400003
0.29909977 0.077765055 -0.79333341
-0.36644417 0.081395052 -0.79400003
-0.36277631 0.082804061 -0.79285723
-0.35914671 0.084744498 -0.79200006
0.30204704 0.082004331 -0.7930001
0.30739924 0.084958516 -0.79400003
0.31217155 0.084905013 -0.79350001
0.31654066 0.084744498 -0.79200006
-0.36005366 0.086383887 -0.79400003
-0.35730016 0.08777301 -0.79366672
-0.35370374 0.088355169 -0.79250008
0.31591988 0.086383887 -0.79400003
0.32728079 0.086383894 -0.79400003
-0.35123783 0.091059044 -0.79333341
-0.34759772 0.092801467 -0.79280007
-0.34329033 0.094816603 -0.79300004
-0.34159219 0.097074248 -0.79400003
-0.33701721 0.097334929 -0.79288894
-0.33345777 0.098571777 -0.79266679
-0.33250764 0.10093067 -0.79350001
-0.32869118 0.10180598 -0.79200006
-0.16826195 0.0026699083 -0.78700012
-0.16403916 0.0029726541 -0.78700006
-0.15840881 0.0036790613 -0.78700006
-0.17107713 0.0093303192 -0.78700006
-0.16840272 0.0067872531 -0.78700012
-0.16403916 0.0065046903 -0.78700006
-0.15840881 0.0072110975 -0.78700006
-0.13025695 0.014275171 -0.78700006
-0.12722467 0.013010534 -0.78740007
-0.12260577 0.012165559 -0.78758335
-0.11752339 0.012698686 -0.78775012
-0.11258422 0.012788023 -0.78857148
-0.10761824 0.013306891 -0.78820008
-0.10287377 0.012870978 -0.78750008
-0.097178534 0.013921968 -0.78700006
-0.09365955 0.014981579 -0.78700006
-0.12227573 0.015038687 -0.79000008
-0.11874334 0.015038687 -0.79000002
-0.10743969 0.01551142 -0.79000008
-0.10216055 0.015598354 -0.78960007
-0.097606942 0.016564071 -0.78890914
-0.092421472 0.017841486 -0.78844452
-0.087455288 0.017835103 -0.78816676
-0.082468607 0.017822891 -0.78766674
-0.077537864 0.017822891 -0.78766674
-0.072597072 0.017820375 -0.78755563
-0.067945771 0.01862151 -0.78728586
-0.062692516 0.019220022 -0.78700006
-0.057765938 0.019220022 -0.78700006
-0.052135568 0.019220022 -0.78700006
-0.047208995 0.019220022 -0.78700006
-0.29621214 0.024210483 -0.78850007
-0.29312056 0.024246454 -0.78966677
-0.28756562 0.024287852 -0.78771436
-0.25412509 0.024871282 -0.78700006
-0.087422773 0.020711487 -0.79000008
-0.082712911 0.020711487 -0.79000008
-0.077767558 0.020711487 -0.79000002
-0.072822198 0.021420587 -0.79000008
-0.067543238 0.021830317 -0.78940004
-0.062601112 0.02225578 -0.78940004
-0.057726249 0.021976601 -0.78909093
-0.052245982 0.022093534 -0.78866673
-0.047336027 0.022105986 -0.78911114
-0.042376433 0.022805117 -0.78875005
-0.037561968 0.022994632 -0.78863651
-0.032484211 0.023500007 -0.78833336
-0.027549291 0.023500005 -0.78833342
-0.023074901 0.024431944 -0.78800011
-0.017671976 0.024902886 -0.78800005
-0.012727686 0.024879184 -0.78725004
-0.0077964002 0.024871282 -0.78700006
-0.0049812146 0.024871282 -0.78700006
-0.29677612 0.026384288 -0.79000002
-0.29233074 0.027590349 -0.78971428
-0.28727731 0.027594235 -0.78772736
-0.28262883 0.028756522 -0.78700006
-0.27946177 0.029109726 -0.78700006
-0.25600189 0.028638788 -0.78700006
-0.25278744 0.027878163 -0.78810012
-0.037498243 0.02638429 -0.79000008
-0.032552887 0.026384288 -0.79000002
-0.027607536 0.02638429 -0.79000008
-0.022191195 0.026857024 -0.79000008
-0.017716827 0.027093392 -0.79000008
-0.012760019 0.027068343 -0.78925002
-0.0074139256 0.027166063 -0.78914291
-0.0024537679 0.027626911 -0.78900003
0.0027625053 0.027723905 -0.78775012
0.0076871184 0.027696913 -0.78700012
0.01242175 0.027825352 -0.78700018
0.017544281 0.028409485 -0.78716677
0.022478959 0.027712174 -0.78741682
0.027416622 0.027720973 -0.78766674
0.032347366 0.027720971 -0.78766674
0.037270226 0.028421815 -0.78750008
0.042199928 0.028421814 -0.78750008
0.047833875 0.028421812 -0.78750008
0.052763581 0.028421812 -0.78750008
0.057211287 0.028651116 -0.78733343
0.06258323 0.029109728 -0.78700006
0.06962119 0.029109726 -0.78700006
0.072436377 0.029109728 -0.78700006
0.077362955 0.029109726 -0.78700006
0.082289532 0.029109728 -0.78700006
0.087216102 0.029109726 -0.78700006
0.092142671 0.029109728 -0.78700006
-0.29041779 0.03063889 -0.79000002
-0.28712091 0.03158436 -0.79000008
-0.28258497 0.032628618 -0.7895
-0.27781048 0.032662801 -0.7887693
-0.27266043 0.033555165 -0.78850007
-0.26783714 0.0333918 -0.78800005
-0.2620745 0.034081958 -0.78762507
-0.25713697 0.032802016 -0.78868747
-0.25256732 0.032405175 -0.78983343
-0.0010439196 0.032340731 -0.79000002
0.0020606248 0.032255758 -0.78854555
0.008742813 0.031582151 -0.78700006
0.012613695 0.032641761 -0.787
0.017568871 0.032693837 -0.78825009
0.022552485 0.032766189 -0.79000002
0.027295992 0.031651892 -0.79000008
0.032443192 0.03134799 -0.79000002
0.037388548 0.031347994 -0.79000008
0.042333901 0.03134799 -0.79000002
0.047279254 0.03134799 -0.79000008
0.05220741 0.031338297 -0.78974998
0.058100428 0.031742427 -0.78920007
0.062750712 0.032022219 -0.78911114
0.067624182 0.031991251 -0.78833342
0.072589777 0.032004185 -0.78866673
0.077526785 0.032004181 -0.78866673
0.082533501 0.032031234 -0.78933334
0.087474674 0.032031234 -0.78933334
0.092564963 0.03231746 -0.78940004
0.097284526 0.032716364 -0.78875005
0.10266694 0.033174157 -0.78800005
0.10771737 0.033377018 -0.78766674
0.11250359 0.033263247 -0.78800005
0.11722416 0.033725329 -0.78844446
0.12248369 0.034076665 -0.78750008
0.1270206 0.034418821 -0.78725004
0.13225907 0.034760982 -0.78700006
0.13718566 0.034760982 -0.78700006
-0.26781043 0.036311693 -0.79000008
-0.2628651 0.036784425 -0.79000008
-0.25862622 0.03631169 -0.79000002
0.014255885 0.036644734 -0.78700006
0.01773338 0.037445378 -0.78775007
0.022539256 0.037705414 -0.7895
0.026084879 0.039148092 -0.79000002
0.098852225 0.03631169 -0.79000002
0.10238462 0.036311693 -0.79000008
0.10780098 0.036784425 -0.79000008
0.11227533 0.036311693 -0.79000008
0.11764457 0.03659533 -0.79000002
0.12287252 0.037020791 -0.79000002
0.12771003 0.037699249 -0.78933334
0.13256672 0.037675373 -0.78883338
0.13747616 0.037667412 -0.78866673
0.1422326 0.037619047 -0.78766674
0.14743242 0.037474524 -0.7876001
0.15210974 0.038329735 -0.78775007
0.15769586 0.0383178 -0.78750008
0.16262558 0.0383178 -0.78750008
0.16755526 0.038317796 -0.78750008
0.17248498 0.0383178 -0.78750008
0.17630199 0.038658611 -0.78725004
0.21319565 0.038999431 -0.78700006
-0.35686755 0.04433959 -0.78775007
-0.35406417 0.043944277 -0.78700006
0.01894786 0.040412243 -0.78700006
0.022843424 0.041986331 -0.78783345
0.02715777 0.043201391 -0.78922224
0.031030234 0.044820894 -0.79000002
0.14901225 0.040566292 -0.79000002
0.15254465 0.040566292 -0.79000002
0.15749 0.040566292 -0.79000008
0.16243535 0.040566292 -0.79000002
0.16596775 0.040566292 -0.79000002
0.17232606 0.040566292 -0.79000002
0.17727141 0.040566292 -0.79000008
0.18221676 0.040566292 -0.79000002
0.18833959 0.041039027 -0.79000008
0.19281398 0.041275393 -0.79000008
0.19775932 0.041275393 -0.79000002
0.20270467 0.040566292 -0.79000008
0.208121 0.041039027 -0.79000008
0.21292207 0.041414157 -0.78925002
0.21758273 0.042085417 -0.78945464
0.2225669 0.041115411 -0.78885722
0.2274867 0.041332681 -0.78914291
0.2324433 0.041115411 -0.78885722
0.2376883 0.041217625 -0.78887504
0.24245028 0.041895758 -0.7883001
0.2472697 0.04275807 -0.78853339
0.252352 0.043599151 -0.78840005
0.2576538 0.043915287 -0.78828585
0.26277232 0.044166006 -0.78914291
0.26795599 0.043476004 -0.78844446
0.27221715 0.043838151 -0.78825009
0.27698943 0.044053297 -0.78714299
0.28287148 0.044650685 -0.78700006
0.28779805 0.044650685 -0.78700006
-0.36601102 0.049075492 -0.79000002
-0.36175397 0.047993038 -0.78885722
-0.35708153 0.047502927 -0.78744453
0.028344011 0.046553951 -0.78733343
0.032195896 0.047702819 -0.78863639
0.035975587 0.04836639 -0.79000002
0.25286466 0.046239093 -0.79000002
0.25781006 0.046239093 -0.79000008
0.26275539 0.046239093 -0.79000002
0.26770073 0.046239093 -0.79000008
0.27311707 0.046711825 -0.79000008
0.27784806 0.047485471 -0.78927279
0.28253043 0.047727801 -0.78880006
0.28747293 0.047468644 -0.78920001
0.29241821 0.047759607 -0.788077
-0.36611196 0.052317098 -0.79000008
-0.36207351 0.052423473 -0.78800005
-0.35848802 0.052522082 -0.78700012
0.033500277 0.051254474 -0.78716677
0.037183948 0.052704081 -0.78836375
0.040214464 0.054039195 -0.79000002
0.28253677 0.050493695 -0.79000002
0.28677565 0.050493695 -0.79000002
0.29357061 0.052073188 -0.78975004
0.29581416 0.052791674 -0.78800005
-0.36671752 0.057584696 -0.79000008
-0.36281741 0.05741461 -0.78766674
-0.35969457 0.057366021 -0.78700006
0.037950359 0.055953205 -0.78700006
0.042254709 0.057474162 -0.78850007
0.046926014 0.058648348 -0.79000002
0.29666638 0.056166496 -0.79000002
-0.36671752 0.062548392 -0.79000002
-0.36281741 0.062363654 -0.78766674
-0.35969457 0.061604463 -0.78700006
0.043242898 0.06056397 -0.78725004
0.047852278 0.061948933 -0.78780007
0.052185126 0.0629251 -0.78940004
0.055757005 0.064675696 -0.79000002
-0.36671752 0.067512095 -0.79000008
-0.36281741 0.067312695 -0.78766674
-0.35969454 0.068668537 -0.78700006
0.053433876 0.065842904 -0.78700006
0.057745643 0.067357734 -0.78820008
0.061408833 0.068930298 -0.79000002
-0.36530456 0.072239429 -0.79000008
-0.36238083 0.072315469 -0.78825009
-0.35941303 0.072341852 -0.78700012
0.05932416 0.070581973 -0.78733343
0.062863983 0.072180852 -0.78890914
0.065647706 0.0731849 -0.79000008
0.29866496 0.073423199 -0.78875005
-0.36219731 0.077518754 -0.78900003
-0.35789365 0.077633008 -0.78716677
0.063990824 0.077145427 -0.78700006
0.066134036 0.077701844 -0.78857154
0.29900348 0.076429881 -0.78933334
0.30162919 0.077872358 -0.78800005
0.30750439 0.078558236 -0.78700006
0.31243095 0.078558236 -0.78700006
0.31749251 0.078591511 -0.78733337
0.32171589 0.079062454 -0.78733337
-0.36177218 0.080275901 -0.79000002
-0.35736573 0.082233287 -0.78911114
-0.35320696 0.083143093 -0.78760004
-0.23160362 0.082796685 -0.78700006
0.066393405 0.081452213 -0.78766674
0.30336723 0.081187494 -0.78966677
0.30723426 0.081470989 -0.78920001
0.31241524 0.081626348 -0.78933334
0.31805506 0.082192674 -0.78953856
0.32275388 0.082471669 -0.78907698
0.32672763 0.08297383 -0.78866673
-0.35201246 0.086248852 -0.7895
-0.34739429 0.088306427 -0.78783339
-0.34372592 0.089917853 -0.78750002
-0.23629558 0.089389823 -0.78700006
-0.23259531 0.088363044 -0.78750008
-0.34552315 0.091621503 -0.79000002
-0.34245929 0.092332534 -0.7888
-0.33792171 0.093424991 -0.78875005
-0.33182418 0.094178915 -0.78766674
-0.23730059 0.092712745 -0.78722233
-0.23370996 0.092602067 -0.78800005
-0.33158493 0.096267931 -0.78933334
-0.32817286 0.097302914 -0.788625
-0.32400709 0.098400116 -0.78750002
-0.3104288 0.099750459 -0.78700006
-0.30831742 0.099750459 -0.78700006
-0.29705667 0.099750459 -0.78700006
-0.29283386 0.099750459 -0.78700006
-0.28790733 0.099750459 -0.78700006
-0.23771408 0.097150639 -0.78755563
-0.23471668 0.09563338 -0.78800005
-0.32715473 0.1001307 -0.79000008
-0.31645945 0.10235457 -0.78800005
-0.3125644 0.10251924 -0.78754556
-0.30738541 0.10279998 -0.78772736
-0.302495 0.10251355 -0.7876001
-0.29762241 0.1027725 -0.78850001
-0.29258418 0.1027358 -0.78822231
-0.28723419 0.1025871 -0.78708339
