# .PCD v0.7 - Point Cloud Data file format
VERSION 0.7
FIELDS x y z
SIZE 4 4 4
TYPE F F F
COUNT 1 1 1
WIDTH 270
HEIGHT 1
VIEWPOINT 0 0 0 1 0 0 0
POINTS 270
DATA ascii
0.093502097 0.070762627 -0.81100005
0.079132363 0.065903716 -0.80500007
0.083015025 0.067250066 -0.80600011
0.087341361 0.068296313 -0.80766678
0.090377636 0.069135807 -0.80900002
0.084171623 0.070239104 -0.80500007
0.087793075 0.071701683 -0.80520022
0.091879211 0.072172426 -0.8058573
0.06632828 0.059576098 -0.80250001
0.068438366 0.061698366 -0.80200005
0.072069541 0.063898019 -0.80250001
0.073100679 0.065658107 -0.80200005
0.077403583 0.067528866 -0.80200005
0.0809891 0.069256566 -0.80200005
0.082789317 0.071994677 -0.80157155
0.087079622 0.074063852 -0.80260003
0.091143548 0.074389204 -0.80300003
0.08838249 0.076254837 -0.80140001
0.091913752 0.076906271 -0.80220002
0.043723192 0.051234432 -0.79600006
0.047862075 0.052175924 -0.79675001
0.049062029 0.055164106 -0.79600006
0.053222585 0.056126963 -0.79700005
0.057580326 0.057605181 -0.7974546
0.061838519 0.059115555 -0.7992
0.059027854 0.06087999 -0.79600006
0.062650695 0.062370867 -0.79680008
0.067110419 0.063021317 -0.79900002
0.064722613 0.065166906 -0.79600006
0.068101741 0.066174135 -0.79666674
0.071879916 0.067907467 -0.79800004
0.076446787 0.069400162 -0.79950005
0.073058747 0.071388803 -0.79633343
0.077852055 0.072005771 -0.79714286
0.081196755 0.07357081 -0.79933333
0.083188958 0.076863974 -0.79711115
0.087268271 0.078295417 -0.7987501
0.091204315 0.079310633 -0.79933333
0.087786384 0.081457175 -0.79600006
0.090762593 0.082008123 -0.79650003
0.037537798 0.047439639 -0.79314297
0.040418077 0.049323976 -0.79400003
0.038899735 0.050621528 -0.79200006
0.042849686 0.053176269 -0.7930001
0.046098527 0.053600118 -0.79400003
0.047457904 0.055667095 -0.79300004
0.052128833 0.05822001 -0.79314297
0.054481626 0.060574058 -0.79200006
0.057387065 0.061835967 -0.7930001
0.060223714 0.064208612 -0.79300004
0.063327044 0.066042364 -0.79280007
0.067049004 0.068069927 -0.79320008
0.068232588 0.071059898 -0.79266679
0.072211497 0.073630691 -0.79311121
0.077018738 0.07437291 -0.79360008
0.078612328 0.077328213 -0.79250008
0.081276216 0.07807675 -0.79360002
0.0838276 0.081020802 -0.79266679
0.086954318 0.083819114 -0.79285723
0.087061942 0.086166292 -0.79200006
0.018125949 0.041594207 -0.78800005
0.022491079 0.041868445 -0.78783339
0.027460873 0.042633325 -0.78891671
0.031252932 0.043856513 -0.78966677
0.028344011 0.046553951 -0.78733343
0.032376081 0.047555856 -0.78833342
0.035975587 0.04836639 -0.79000002
0.033976763 0.050794192 -0.78733337
0.037312996 0.052512806 -0.78840011
0.040542252 0.053649992 -0.7895
0.042424999 0.057316277 -0.788091
0.047043718 0.057947222 -0.78942859
0.050105169 0.059002895 -0.79000002
0.04358073 0.060191646 -0.78700006
0.048121825 0.061792362 -0.7876001
0.052506007 0.062460907 -0.78891671
0.056859136 0.064075671 -0.78960001
0.054137673 0.065842904 -0.78700006
0.057903189 0.067188799 -0.78772736
0.062324893 0.067955747 -0.78966677
0.065647706 0.068930298 -0.79000002
0.059298843 0.070552289 -0.78700006
0.06278833 0.071848683 -0.78780013
0.067010455 0.073128596 -0.78940004
0.063990824 0.075732611 -0.78700006
0.067942657 0.077531233 -0.78761554
0.072651133 0.077372946 -0.7893334
0.076448523 0.077878967 -0.78966665
0.072475821 0.081023768 -0.78742868
0.07767792 0.081905209 -0.78814298
0.082266375 0.082930945 -0.78977782
0.079474337 0.085622311 -0.78700006
0.082586929 0.087339163 -0.78833336
0.085429125 0.0866578 -0.79000002
0.018400794 0.043991826 -0.78366673
0.022409745 0.044537216 -0.78500003
0.01761934 0.047147814 -0.78157151
0.022319792 0.047163438 -0.78183341
0.026729915 0.048286997 -0.78299999
0.028826442 0.052042823 -0.78133345
0.032106996 0.052368674 -0.78336364
0.035747893 0.054401789 -0.78500003
0.013914389 0.059031732 -0.78100002
0.033470444 0.055526625 -0.78100002
0.037804574 0.057557456 -0.7826364
0.016009681 0.062536843 -0.78100002
0.039756324 0.061835818 -0.78100002
0.042508788 0.062398054 -0.78280002
0.046675991 0.063669927 -0.78460008
0.016009681 0.065340929 -0.78100002
0.048175186 0.066793524 -0.78160006
0.0523476 0.067821637 -0.78318191
0.055825066 0.069374144 -0.78433341
0.053259321 0.071416453 -0.78100002
0.057161111 0.072646387 -0.78281832
0.061722182 0.07413093 -0.78500003
0.059001133 0.076254882 -0.78149998
0.062152941 0.077664666 -0.78318191
0.06564483 0.079230338 -0.78433341
0.063762881 0.082667269 -0.78133345
0.067341767 0.082561642 -0.78366673
0.072252296 0.08343181 -0.78500003
0.075762331 0.083995499 -0.78500003
0.06860172 0.086178206 -0.78179997
0.072706476 0.086517841 -0.78233337
0.077561013 0.087505408 -0.78318191
0.080573618 0.088813603 -0.78400004
0.078868441 0.090577707 -0.78100002
0.080470845 0.090809666 -0.78300005
0.014575399 0.049790617 -0.77900004
0.017361967 0.049441002 -0.77900004
0.022238461 0.049790617 -0.77900004
0.0142224 0.052919809 -0.77875006
0.017354539 0.05256442 -0.77866673
0.022204559 0.05250787 -0.7778334
0.026645025 0.053042125 -0.77883339
0.014014343 0.056488972 -0.77880007
0.01734852 0.057439595 -0.77841675
0.022017481 0.057130914 -0.77613336
0.027729042 0.056611605 -0.77666676
0.032609232 0.057573702 -0.77711117
0.035923909 0.059088141 -0.77866673
0.018018782 0.06224294 -0.77733344
0.020533582 0.061207768 -0.77600002
0.033950128 0.06074341 -0.77600002
0.03733043 0.062494811 -0.77700007
0.017306248 0.067054041 -0.77650005
0.039535739 0.066371456 -0.77666676
0.042341944 0.067111015 -0.77716672
0.046127182 0.068392441 -0.77850008
0.043202918 0.07095924 -0.77600002
0.047561582 0.072286859 -0.77684617
0.052147705 0.073497318 -0.77829999
0.05637392 0.074962772 -0.77900004
0.05340451 0.076796368 -0.77633333
0.057317439 0.077887647 -0.7782858
0.022846779 0.081639424 -0.77600002
0.057784237 0.081556216 -0.77687502
0.061375767 0.083110914 -0.77837503
0.063627705 0.086839497 -0.77683342
0.067194358 0.08839675 -0.77725005
0.071940348 0.089348599 -0.77728581
0.074295379 0.091506869 -0.77700007
0.076994844 0.09244968 -0.77745467
0.07611645 0.096116565 -0.77666676
0.024172237 0.059197377 -0.77400005
0.02763309 0.059197377 -0.77400005
0.031093944 0.059197377 -0.77400005
0.019301178 0.064671628 -0.773
0.022469273 0.062417872 -0.77260005
0.02755953 0.061808314 -0.77191663
0.03242847 0.062572293 -0.77280003
0.035708416 0.064292133 -0.77400005
0.019296866 0.06743215 -0.77283335
0.033731375 0.06588839 -0.77100003
0.03683826 0.067541234 -0.77250004
0.018714996 0.072037876 -0.77218187
0.022010082 0.074192941 -0.77100003
0.038410872 0.071643412 -0.77149999
0.042386521 0.073031239 -0.77336365
0.046321698 0.074481629 -0.77400005
0.019523282 0.076202378 -0.77266669
0.022597322 0.077421576 -0.77181816
0.025457522 0.078345209 -0.77100009
0.043682866 0.076169886 -0.77140009
0.047603317 0.077092424 -0.77233338
0.051628515 0.078386337 -0.77312505
0.023118366 0.081029043 -0.77350008
0.025457522 0.082497492 -0.77100009
0.053410389 0.081952013 -0.77240002
0.05701416 0.083806202 -0.77350003
0.026196539 0.085431561 -0.77250004
0.05857192 0.086331382 -0.77125007
0.061806075 0.088073581 -0.77287507
0.065702476 0.089765877 -0.77400005
0.064068839 0.090802036 -0.77100003
0.067443848 0.092827454 -0.7717334
0.072193436 0.092692994 -0.77266669
0.068940386 0.095707938 -0.77149999
0.072806738 0.096840397 -0.77225
0.048461594 0.10330411 -0.7713334
0.052347545 0.10464296 -0.77100003
0.055794984 0.10464296 -0.77100003
0.064068839 0.10464296 -0.77100003
0.065447815 0.10325886 -0.77100003
0.052671757 0.10667969 -0.77142864
0.057863444 0.10741115 -0.77100003
0.062230211 0.10694978 -0.77100003
0.023328386 0.06433697 -0.76900005
0.027454581 0.06433697 -0.76900005
0.030893078 0.06433697 -0.76900005
0.022640686 0.067788221 -0.76900005
0.027413411 0.06768804 -0.76787508
0.032121204 0.067927249 -0.76845455
0.035019275 0.069858976 -0.76900005
0.022837171 0.072225556 -0.76900011
0.02742929 0.072557323 -0.76833344
0.032203998 0.072472677 -0.76744449
0.036001701 0.072817199 -0.76900011
0.027907059 0.077230476 -0.76838475
0.032864884 0.077237368 -0.76687509
0.03767623 0.077257112 -0.76708341
0.042091697 0.078038901 -0.76800013
0.047397863 0.079522491 -0.76900005
0.027951162 0.082057878 -0.76850009
0.032148331 0.08138819 -0.7661429
0.043120094 0.081994236 -0.7662999
0.047275037 0.082757048 -0.76700008
0.050397653 0.083067559 -0.76860005
0.027711963 0.088050202 -0.76662505
0.030772559 0.087462947 -0.76600003
0.04836522 0.08702331 -0.76616669
0.052598864 0.086912416 -0.76769239
0.056981873 0.087736271 -0.76840013
0.028188387 0.091601387 -0.7661112
0.031229239 0.092734233 -0.76600003
0.049953021 0.094338529 -0.76600003
0.052693091 0.09227585 -0.76599997
0.057531253 0.092343435 -0.76656252
0.06238775 0.092803441 -0.76881826
0.032849483 0.097840592 -0.7665
0.043102853 0.097088762 -0.76600003
0.048365217 0.098485611 -0.76616669
0.052519079 0.098004751 -0.7665385
0.057493653 0.097398371 -0.76676935
0.062509574 0.097441249 -0.76877785
0.067278624 0.0975945 -0.76900005
0.070779637 0.098159254 -0.76900005
0.047397863 0.10069018 -0.76900005
0.052211754 0.10230075 -0.76900005
0.057909835 0.10230075 -0.76900011
0.062402211 0.1021125 -0.76900005
0.067242905 0.10082164 -0.76900011
0.070779637 0.10023001 -0.76900005
0.033584546 0.0832638 -0.76375002
0.037475377 0.082324557 -0.76300001
0.041150812 0.08354032 -0.76366675
0.033380188 0.08780586 -0.76300001
0.037426259 0.087690189 -0.76200002
0.042217884 0.087732553 -0.76237506
0.047228213 0.088884711 -0.76377779
0.033815544 0.092524745 -0.76400006
0.037470318 0.092587039 -0.76288891
0.042242937 0.092580304 -0.76283336
0.047575697 0.092574261 -0.76381814
0.034336101 0.097292438 -0.76400006
0.03729675 0.096835256 -0.76400006
0.042534836 0.096835256 -0.76400006
0.047480103 0.096051537 -0.76400006
0 0 0
