# .PCD v0.7 - Point Cloud Data file format
VERSION 0.7
FIELDS x y z
SIZE 4 4 4
TYPE F F F
COUNT 1 1 1
WIDTH 289
HEIGHT 1
VIEWPOINT 0 0 0 1 0 0 0
POINTS 289
DATA ascii
0.11757385 0.080086164 -0.81700003
0.099304169 0.070762627 -0.81100005
0.10251299 0.072124243 -0.81200004
0.10706189 0.073369622 -0.81300008
0.10365573 0.075130321 -0.81100005
0.10809686 0.076486617 -0.81166673
0.11228143 0.07829538 -0.81174999
0.11525987 0.080953918 -0.81100005
0.083451733 0.065903716 -0.80500007
0.087519288 0.067611799 -0.80600011
0.092434548 0.068324789 -0.80800009
0.089450836 0.070720814 -0.80500007
0.093019582 0.071525402 -0.80525017
0.09732312 0.072548553 -0.80660009
0.10090572 0.074399173 -0.8083334
0.10283803 0.07701771 -0.80600011
0.10675378 0.078380659 -0.80700004
0.10797951 0.081915751 -0.80614299
0.11234435 0.082842387 -0.80673349
0.11599083 0.084071234 -0.80600005
0.10864799 0.086858079 -0.80500007
0.11224746 0.086858079 -0.80500019
0.11584692 0.086858079 -0.80500007
0.072383471 0.062058754 -0.80200005
0.076422401 0.063938051 -0.80300003
0.077611439 0.065630823 -0.80166674
0.082643375 0.067726068 -0.80214292
0.085398711 0.068623051 -0.80300003
0.087400749 0.071926087 -0.80233335
0.09216395 0.0739825 -0.80250001
0.095452175 0.074389204 -0.80300003
0.093182571 0.075736314 -0.80200005
0.097796492 0.077338383 -0.80220002
0.10191512 0.078713819 -0.80300003
0.10286716 0.081688128 -0.80233335
0.10608013 0.083326735 -0.80300009
0.10707196 0.08771275 -0.8024286
0.11268669 0.088804588 -0.80300009
0.10857765 0.091905706 -0.80211115
0.11214811 0.092048049 -0.80300003
0.03702987 0.05240383 -0.79750001
0.05404494 0.055164106 -0.79600006
0.057828739 0.056204602 -0.79628581
0.062137574 0.057796046 -0.79783338
0.065763272 0.059031688 -0.80000001
0.063654847 0.061237235 -0.79600006
0.067876175 0.062245961 -0.79750001
0.071800128 0.063659146 -0.79949999
0.06899368 0.065166906 -0.79600006
0.073188372 0.066827811 -0.79688895
0.077666089 0.067659676 -0.79733342
0.081128247 0.06920778 -0.79866672
0.07895951 0.07088279 -0.79600006
0.082397625 0.072412699 -0.79711115
0.086510509 0.073632568 -0.80000007
0.084179699 0.075646028 -0.79600012
0.087817453 0.076538995 -0.79725003
0.092312165 0.077955 -0.79820001
0.096466087 0.079087913 -0.79949999
0.094145536 0.081361912 -0.79600012
0.097799391 0.08226341 -0.79724997
0.10121189 0.083615504 -0.79933333
0.098891161 0.085172504 -0.79600006
0.10203227 0.08725892 -0.7972728
0.10511148 0.089908957 -0.80000001
0.10355208 0.092124358 -0.79680008
0.10654232 0.093140304 -0.80000001
0.10471731 0.096009359 -0.79700005
0.10684171 0.095971666 -0.79866672
0.038997967 0.049323976 -0.79400003
0.042527534 0.048158821 -0.79360014
0.046098527 0.049323976 -0.79400003
0.038427558 0.052043319 -0.79200006
0.04244107 0.050621528 -0.79200006
0.047606386 0.052431177 -0.79250002
0.050295442 0.054243509 -0.79300004
0.036157742 0.055025499 -0.79400003
0.053344537 0.056999281 -0.79314297
0.057147175 0.058701616 -0.79360008
0.058731232 0.060574058 -0.79200006
0.062081613 0.062514417 -0.79342866
0.06589701 0.064208612 -0.79300004
0.0680236 0.065632194 -0.79300004
0.071305051 0.068069927 -0.79320002
0.075920895 0.069279313 -0.79400003
0.073903501 0.071059898 -0.79266679
0.077508144 0.071735986 -0.79280013
0.080788516 0.074173711 -0.79300004
0.082812332 0.076213755 -0.79200006
0.087208509 0.07871531 -0.79333341
0.090122022 0.079256982 -0.79400003
0.089186743 0.08119002 -0.79200006
0.092313066 0.082537055 -0.7930001
0.096275851 0.084483385 -0.79400003
0.09753269 0.087187283 -0.79266679
0.1000628 0.08923465 -0.79400003
0.099810757 0.09043166 -0.79200006
0.10166397 0.092845701 -0.79320002
0.10348348 0.096952878 -0.79300004
0.038330518 0.054275565 -0.79000008
0.042298175 0.053283893 -0.78933334
0.046337284 0.054275565 -0.79000008
0.034475125 0.058853522 -0.78800005
0.037314523 0.057470508 -0.78844452
0.041761037 0.056249987 -0.78720009
0.047609996 0.057414014 -0.78766674
0.051235534 0.057868339 -0.79000002
0.034475125 0.062390048 -0.78800005
0.037273571 0.062356841 -0.78758347
0.0494457 0.06066259 -0.78700006
0.052998938 0.061277799 -0.78800005
0.057562254 0.062697269 -0.78891677
0.062821791 0.064675704 -0.79000008
0.034431376 0.066549316 -0.78700006
0.037428424 0.067090034 -0.78712511
0.059768043 0.065842904 -0.78700006
0.062799171 0.067121178 -0.78750008
0.067161866 0.06776949 -0.78933334
0.03870327 0.070877708 -0.78800005
0.063990824 0.070081353 -0.78700006
0.068283662 0.071566127 -0.78780007
0.072286606 0.072912693 -0.78877783
0.076868914 0.073712267 -0.78914291
0.072436377 0.075732611 -0.78700006
0.077977076 0.076895818 -0.78766674
0.082133904 0.078036085 -0.78887504
0.085429125 0.078857698 -0.79000002
0.083197534 0.081162639 -0.78760004
0.087032989 0.082654431 -0.7887693
0.091787435 0.084530503 -0.79000002
0.088896126 0.086129516 -0.78733337
0.092420459 0.087688819 -0.7882728
0.095787778 0.088977396 -0.78920007
0.094394825 0.092403822 -0.78700012
0.097810693 0.092711814 -0.78855562
0.10097166 0.094457902 -0.79000002
0.098263249 0.096474126 -0.78716677
0.10129353 0.097857326 -0.78883338
0.10058823 0.10116328 -0.78700006
0.039959941 0.058629461 -0.78500003
0.042707045 0.05854528 -0.78388894
0.045517944 0.059257589 -0.78400004
0.039909035 0.062071554 -0.78400004
0.042609788 0.062625021 -0.78211117
0.04729721 0.062537722 -0.78250003
0.052262392 0.063637175 -0.78420001
0.055404108 0.064266361 -0.78500003
0.039858133 0.067616709 -0.78300005
0.042550053 0.067443997 -0.78100008
0.046740629 0.066142105 -0.78100008
0.052607447 0.065901749 -0.78100008
0.057344213 0.067591004 -0.78271431
0.061436355 0.069374144 -0.78433341
0.03989207 0.072599381 -0.78366673
0.042585175 0.071711287 -0.78166676
0.059001133 0.072046056 -0.7815001
0.062283609 0.072555818 -0.78322226
0.066140532 0.07315997 -0.78466672
0.039926004 0.077821121 -0.78433341
0.04125857 0.07815896 -0.78300005
0.063814864 0.076315366 -0.78140014
0.067611992 0.077245951 -0.78253853
0.072569922 0.077909432 -0.78376925
0.076986983 0.078881644 -0.78460008
0.039756324 0.081464425 -0.78100002
0.041618805 0.0835675 -0.78100002
0.068624794 0.081230752 -0.78100002
0.072759785 0.081926405 -0.78140008
0.077588201 0.082988314 -0.78216672
0.081509024 0.082949609 -0.78400004
0.078868441 0.086371578 -0.78100002
0.082916923 0.086882018 -0.78269237
0.087310776 0.087990865 -0.78433335
0.090504497 0.089632392 -0.78500003
0.084455885 0.090577707 -0.78100002
0.087458819 0.092574917 -0.78172737
0.09144149 0.092584357 -0.78442866
0.088646464 0.096886903 -0.78100002
0.092346638 0.097101986 -0.78275001
0.096933536 0.098431334 -0.78400004
0.094233915 0.10039201 -0.78100002
0.097205624 0.10157814 -0.78242862
0.047852363 0.068271384 -0.77888894
0.0523431 0.06846153 -0.77862501
0.047055691 0.072537102 -0.77700007
0.053117521 0.071766816 -0.7762
0.057190228 0.073318012 -0.7782501
0.060553778 0.074962772 -0.77900004
0.042821702 0.0780752 -0.77750009
0.04574744 0.077460222 -0.77600002
0.058032699 0.077028543 -0.77633333
0.061997037 0.07793615 -0.77766675
0.042928614 0.082063861 -0.77837503
0.046004552 0.082616091 -0.77644444
0.062960662 0.08135283 -0.77622223
0.067096211 0.083054237 -0.77766675
0.072133802 0.084249526 -0.77866668
0.043834366 0.08684963 -0.77900004
0.046637159 0.087851249 -0.7771818
0.067954123 0.085818626 -0.77600002
0.072270647 0.086478859 -0.77657151
0.077579364 0.088299327 -0.77741671
0.080756396 0.088248074 -0.77900004
0.04557417 0.091042519 -0.77700007
0.079751432 0.092783965 -0.77600002
0.082614936 0.092514746 -0.77800006
0.08563289 0.094541118 -0.77900004
0.083622277 0.096676484 -0.77650005
0.086426593 0.097959027 -0.77777791
0.088459574 0.10195531 -0.77689999
0.092343464 0.10227835 -0.77790922
0.095809504 0.1038195 -0.77866673
0.07905747 0.10950077 -0.77600002
0.082874253 0.10915251 -0.77600002
0.08775866 0.10778622 -0.77600002
0.091780059 0.10625029 -0.77600002
0.095605418 0.10592165 -0.77700007
0.072811842 0.11135821 -0.77600002
0.078215711 0.11197527 -0.77625
0.082669072 0.11248104 -0.77733332
0.087173723 0.11209583 -0.77660006
0.090854779 0.11089385 -0.77600002
0.082774833 0.11541905 -0.77833343
0.085522965 0.11536963 -0.77800006
0.049090382 0.074481629 -0.77400005
0.051859066 0.073786899 -0.77400011
0.048398212 0.077260584 -0.77400011
0.052441236 0.077790871 -0.77237505
0.056473538 0.078186899 -0.77400005
0.048497096 0.081826009 -0.77400011
0.052398242 0.082577288 -0.77174997
0.057298001 0.081980191 -0.77266669
0.061527245 0.083382897 -0.77371442
0.049090382 0.087681666 -0.77400005
0.051681768 0.086942613 -0.77136362
0.059242424 0.085265674 -0.77100003
0.062957317 0.086349361 -0.77185714
0.067495175 0.08799807 -0.77290916
0.072373316 0.088707127 -0.77342868
0.075392865 0.089765877 -0.77400005
0.047851864 0.092985258 -0.7719
0.069584742 0.092186131 -0.77100003
0.07327795 0.092667423 -0.77116668
0.077017173 0.092645988 -0.77291679
0.047538236 0.097165018 -0.77128577
0.077811606 0.096882477 -0.77166665
0.081743166 0.097865231 -0.77350008
0.052369878 0.10330351 -0.77133334
0.078318253 0.10279749 -0.77099997
0.082006812 0.1025469 -0.77227277
0.085429341 0.10261854 -0.77400005
0.053554203 0.10637085 -0.77350003
0.057709612 0.10710017 -0.77124995
0.062446237 0.10857486 -0.77140009
0.067560062 0.10817373 -0.77149999
0.072606467 0.10790689 -0.77171433
0.077024244 0.10731579 -0.7723
0.082279727 0.10662535 -0.7736668
0.085544698 0.10551329 -0.77400005
0.09279602 0.10822608 -0.77400011
0.074008524 0.11060803 -0.77400005
0.075392865 0.11060803 -0.77400005
0.092004962 0.11060803 -0.77400005
0.053724695 0.088081598 -0.76900005
0.057441428 0.08729586 -0.76800007
0.062220361 0.088587403 -0.76860005
0.065278046 0.089185998 -0.76900005
0.052125324 0.092486665 -0.76775008
0.057510927 0.092313319 -0.76631248
0.062317789 0.092325829 -0.76641673
0.066973142 0.092632346 -0.76814294
0.071238101 0.092867337 -0.76900005
0.052142378 0.097342864 -0.76800013
0.057525165 0.097840711 -0.76650006
0.06232442 0.097840592 -0.7665
0.067166001 0.097903952 -0.76700014
0.072372496 0.097862102 -0.76792324
0.076281235 0.098849505 -0.76900005
0.052899461 0.10101886 -0.76900011
0.057637703 0.10285828 -0.76800007
0.062418837 0.10281362 -0.7676667
0.067224383 0.10281363 -0.76766676
0.072999522 0.10253969 -0.7685715
0.076281235 0.10161051 -0.76900005
0.059776448 0.10575201 -0.76900005
0.062252171 0.10630422 -0.76900005
0.067341141 0.10575201 -0.76900005
0.07146734 0.10575201 -0.76900005
0 0 0
