# .PCD v0.7 - Point Cloud Data file format
VERSION 0.7
FIELDS x y z
SIZE 4 4 4
TYPE F F F
COUNT 1 1 1
WIDTH 269
HEIGHT 1
VIEWPOINT 0 0 0 1 0 0 0
POINTS 269
DATA ascii
0.066368937 0.059613444 -0.80300003
0.06790068 0.062238052 -0.80200005
0.072069541 0.063898019 -0.80250001
0.072353683 0.065630823 -0.80166674
0.075968623 0.066377081 -0.80200005
0.043602299 0.051934414 -0.79657149
0.047745533 0.052421782 -0.79777777
0.048350185 0.055164106 -0.79600006
0.053055041 0.056793608 -0.79716676
0.057606526 0.057879526 -0.79800004
0.061232269 0.059271049 -0.80000007
0.057960086 0.061237235 -0.79600006
0.062301673 0.062591672 -0.7978
0.066478699 0.063579507 -0.80000007
0.063695505 0.065565079 -0.79650009
0.067808427 0.067221008 -0.7972728
0.072082534 0.068251938 -0.79866672
0.076398984 0.068997502 -0.79900002
0.06899368 0.07088279 -0.79600006
0.071922079 0.072391711 -0.79688895
0.076239616 0.072431698 -0.79733342
0.072099917 0.076858498 -0.79600006
0.076112129 0.075884193 -0.79600006
0.037537802 0.047439639 -0.79314297
0.040418077 0.049323976 -0.79400003
0.038899735 0.050621528 -0.79200006
0.041512728 0.052975964 -0.79320014
0.043968357 0.055025499 -0.79400003
0.047458798 0.056616154 -0.7930001
0.051392242 0.058907956 -0.79350001
0.053453617 0.060967747 -0.79250008
0.057356559 0.063462883 -0.79257149
0.062403876 0.067264855 -0.79266673
0.065980107 0.069279313 -0.79400003
0.06773372 0.072662577 -0.79314297
0.068820328 0.077118911 -0.79400003
0.01894786 0.040412243 -0.78700006
0.022843424 0.041986331 -0.78783345
0.02715777 0.043201391 -0.78922224
0.031030234 0.044820894 -0.79000002
0.028344011 0.046553951 -0.78733343
0.032195896 0.047702819 -0.78863639
0.035975587 0.04836639 -0.79000002
0.033500277 0.051254474 -0.78716677
0.037183948 0.052704081 -0.78836375
0.040214464 0.054039195 -0.79000002
0.037950359 0.055953205 -0.78700006
0.042254709 0.057474162 -0.78850007
0.046926014 0.058648348 -0.79000002
0.043242898 0.06056397 -0.78725004
0.047852278 0.061948933 -0.78780007
0.052185126 0.0629251 -0.78940004
0.055757005 0.064675696 -0.79000002
0.053433876 0.065842904 -0.78700006
0.057745643 0.067357734 -0.78820008
0.061408833 0.068930298 -0.79000002
0.05932416 0.070581973 -0.78733343
0.062863983 0.072180852 -0.78890914
0.065647706 0.0731849 -0.79000008
0.063990824 0.077145427 -0.78700006
0.066134036 0.077701844 -0.78857154
0.066393405 0.081452213 -0.78766674
-0.00075265451 0.038702101 -0.78100002
0.0024608143 0.037038032 -0.78140014
0.0076397634 0.037351925 -0.78211117
0.012022577 0.037760604 -0.78411114
0.016091676 0.038900319 -0.78500003
0.013058719 0.041032217 -0.78200006
0.017327856 0.042514026 -0.78318185
0.021329975 0.044128172 -0.78400004
0.018803403 0.045712318 -0.78100002
0.022704169 0.047502052 -0.78207701
0.02684479 0.047804698 -0.78466672
0.024390848 0.051320493 -0.78100002
0.027604155 0.051900707 -0.78209096
0.031665463 0.052790575 -0.78433335
0.029978294 0.055526625 -0.78100002
0.033308767 0.056580409 -0.78266668
0.036927033 0.058211744 -0.78320009
0.039558399 0.061820146 -0.78260005
0.042497575 0.062891364 -0.78325003
0.04659998 0.06387312 -0.7845
0.043946907 0.065340929 -0.78100002
0.047829665 0.066915885 -0.7816667
0.052335795 0.068053685 -0.78319997
0.055825066 0.069374144 -0.78433341
0.053259313 0.071416453 -0.78100002
0.057161111 0.072646387 -0.78281832
0.061020173 0.07413093 -0.78500003
0.058578759 0.076640271 -0.78185725
0.061869416 0.077778339 -0.78388894
0.059312381 0.080763407 -0.78100002
0.061907329 0.082690552 -0.78200006
0.065232217 0.081177048 -0.78500003
0.059312381 0.089175664 -0.78100002
0.061174862 0.086838923 -0.78100002
-0.00074976339 0.039950095 -0.77800006
0.0031910422 0.039466828 -0.77766675
0.0069034626 0.039950095 -0.77800006
-0.0014417953 0.041240461 -0.77600002
0.0027219604 0.041240461 -0.77600002
0.0081417765 0.041271273 -0.77660006
0.011943301 0.043245658 -0.77762502
-0.0049115913 0.049598869 -0.77600002
0.013600226 0.046367891 -0.77633333
0.017322388 0.047581118 -0.77720004
0.020604342 0.049303167 -0.77866673
-0.0068546771 0.052663613 -0.77600002
-0.0033253992 0.052783027 -0.77600008
0.018683024 0.050991938 -0.77600002
0.022188688 0.052465476 -0.77720004
0.026418313 0.053985976 -0.77900004
-0.0063157459 0.055313334 -0.77800006
-0.0027161636 0.057169251 -0.77633333
0.00064008252 0.058653809 -0.77600002
0.023540739 0.05517114 -0.77600002
0.027810061 0.056465115 -0.7767778
0.032175902 0.058558553 -0.7778334
-0.0014417953 0.06074341 -0.77600002
0.00064008252 0.06074341 -0.77600002
0.033487488 0.061207768 -0.77600002
0.036789663 0.062706992 -0.77733338
0.039527252 0.067054048 -0.77650005
0.04225596 0.067365818 -0.77790922
0.046258099 0.068997085 -0.77875006
0.042971596 0.070494883 -0.77600002
0.047529012 0.072072476 -0.77675003
0.052141186 0.073488049 -0.77820009
0.053401154 0.076891206 -0.77628577
0.056902289 0.077999078 -0.7786001
0.054768905 0.080246359 -0.77600002
0.057650167 0.08248432 -0.77740002
0.057889085 0.087380283 -0.77750003
-0.0018533816 0.043357339 -0.77400011
0.002714945 0.043218389 -0.77400011
0.0072832713 0.043357339 -0.77400011
-0.00213025 0.047386825 -0.77400011
0.0027115229 0.047347769 -0.77337503
0.0075441594 0.047283884 -0.77233332
0.0117048 0.048043575 -0.77340001
0.015866188 0.049471039 -0.77400005
-0.0021302502 0.051694211 -0.77400011
0.002906655 0.052568808 -0.77285725
0.0075308378 0.052739512 -0.77100003
0.012362595 0.052069381 -0.77133334
0.017095264 0.053038727 -0.77263641
0.020019213 0.053639472 -0.77400005
-0.00213025 0.055723682 -0.77400005
0.002825744 0.05716671 -0.77316678
0.006496605 0.057237815 -0.77100003
0.019941619 0.056199748 -0.77100003
0.022591751 0.056928087 -0.77255559
0.027160635 0.058708724 -0.7736668
0.0034002718 0.060836378 -0.77275002
0.024078546 0.060352024 -0.77100003
0.028091311 0.061489828 -0.77177781
0.032268524 0.062945686 -0.77312511
0.035939138 0.064755291 -0.77400005
0.033731375 0.06588839 -0.77100003
0.036739945 0.067240134 -0.77262503
0.038370084 0.071039394 -0.77183342
0.042474352 0.072904497 -0.7732501
0.047013871 0.074481629 -0.77400005
0.043671612 0.076150276 -0.7712
0.047740053 0.077366635 -0.77230006
0.051425766 0.078590974 -0.77342868
0.05290018 0.082293637 -0.77263635
0.05601209 0.084207967 -0.77400005
0.053614028 0.086375415 -0.77266669
0.05601209 0.086292185 -0.77400005
0.012325196 0.054673459 -0.76900005
0.0084186029 0.058060087 -0.76816672
0.012138346 0.057512362 -0.76723081
0.017674282 0.057652723 -0.76733339
0.021265287 0.058124714 -0.76900005
0.0044135591 0.063259766 -0.76850003
0.0070328116 0.062017892 -0.76688892
0.019482721 0.061375335 -0.7665
0.022599291 0.062150892 -0.76760006
0.026737047 0.063476406 -0.76814294
0.030893078 0.06433697 -0.76900005
0.0033767372 0.067626163 -0.76716679
0.0073621282 0.067759693 -0.76654547
0.02804869 0.066283755 -0.76642859
0.032094665 0.067870416 -0.76781827
0.035019275 0.069168732 -0.76900005
0.0035477793 0.072258994 -0.76700008
0.0074891988 0.072410323 -0.76677787
0.033991776 0.071924925 -0.7665
0.037263684 0.072984517 -0.76800007
0.0047481232 0.075184926 -0.76700002
0.0070296088 0.076052964 -0.7665
0.038104557 0.076052964 -0.7665
0.042082768 0.078021072 -0.76781827
0.046710163 0.079522491 -0.76900005
0.043569215 0.081521653 -0.76616669
0.047290899 0.082783349 -0.76725006
0.050148658 0.082973741 -0.76900005
0.047919117 0.087500714 -0.76633334
0.051174536 0.087575182 -0.76833338
0.023922395 0.092963412 -0.76600003
0.027131934 0.093003869 -0.76633334
0.03283263 0.09366636 -0.76612508
0.037639394 0.093692027 -0.76633334
0.042431232 0.093681753 -0.76625001
0.048191559 0.092472307 -0.76599997
0.051323052 0.090900734 -0.76600003
0.032870464 0.097215503 -0.76700002
0.038700707 0.097215503 -0.76700002
0.042454012 0.097173259 -0.76666677
0.047739897 0.097406089 -0.76599997
0.012928287 0.059804074 -0.76400012
0.016344426 0.059804074 -0.76400006
0.0088289194 0.063232884 -0.76400006
0.012372988 0.062617935 -0.76230776
0.017086107 0.063251726 -0.76150006
0.021127021 0.06391865 -0.76400006
0.0088289194 0.065290175 -0.76400006
0.01207635 0.067319348 -0.76213342
0.017778978 0.067480281 -0.76015401
0.02242047 0.067124546 -0.76150006
0.026699059 0.068217687 -0.7626667
0.012208204 0.072630644 -0.76187503
0.015579203 0.071087897 -0.76000005
0.023735013 0.070405729 -0.76000005
0.027516672 0.072127953 -0.76046169
0.032001 0.073383532 -0.76260006
0.0084757498 0.077531397 -0.76300001
0.011505747 0.077943191 -0.76033348
0.029172219 0.075863101 -0.76000005
0.032957181 0.077588655 -0.76046169
0.037021082 0.077988282 -0.76300013
0.0088058067 0.080166548 -0.76200002
0.010595098 0.081775263 -0.76000011
0.033638496 0.082879737 -0.76000011
0.037410486 0.082182489 -0.76166672
0.041581348 0.083032608 -0.76319999
0.018977456 0.089506552 -0.76000005
0.022647571 0.088960819 -0.76000005
0.027133267 0.088824384 -0.76000011
0.032747239 0.087705426 -0.76093346
0.037426259 0.087690175 -0.76200002
0.042239431 0.087776497 -0.76275003
0.04572323 0.087920338 -0.76400006
0.022493478 0.091349155 -0.76400012
0.027276075 0.091349155 -0.76400006
0.032741897 0.091349155 -0.76400006
0.037524499 0.091349155 -0.76400012
0.04230709 0.091349155 -0.76400006
0.04572323 0.091349155 -0.76400006
0.01787504 0.072509803 -0.75857139
0.022429656 0.072600126 -0.75800002
0.025740054 0.073719457 -0.75900006
0.014201191 0.077807106 -0.75900006
0.017540578 0.077575333 -0.75675005
0.022918852 0.077446967 -0.75550008
0.027574366 0.07776697 -0.75681818
0.030943852 0.079396747 -0.75900006
0.012692844 0.082878821 -0.75900006
0.017535977 0.082304642 -0.75650001
0.022914391 0.082177721 -0.75533342
0.027679529 0.082286701 -0.75633335
0.031002214 0.082217209 -0.75820005
0.013183056 0.085641757 -0.75900006
0.017750096 0.086395793 -0.75772732
0.022471348 0.085983239 -0.75750005
0.027368061 0.086015508 -0.75842863
0.030491348 0.085301124 -0.75900006
0 0 0
