# .PCD v0.7 - Point Cloud Data file format
VERSION 0.7
FIELDS x y z
SIZE 4 4 4
TYPE F F F
COUNT 1 1 1
WIDTH 1375
HEIGHT 1
VIEWPOINT 0 0 0 1 0 0 0
POINTS 1375
DATA ascii
0.01319794 0.23010466 -0.98900002
0.017620141 0.23010464 -0.98900002
0.022484563 0.2305485 -0.98900002
0.027348986 0.23099236 -0.98900002
0.03265563 0.23099236 -0.98900002
0.037962273 0.23188008 -0.98900002
0.042384475 0.2318801 -0.98900002
0.046553981 0.23238736 -0.98900002
0.052113321 0.23276782 -0.98900002
0.057419956 0.23276782 -0.98900002
0.062662289 0.23253337 -0.98800004
0.067930058 0.23241612 -0.98750007
0.072852626 0.23252225 -0.98720008
0.077526212 0.23294677 -0.98600006
0.081934996 0.23294678 -0.98600006
0.087225541 0.23294678 -0.98600006
0.0926117 0.23318303 -0.98700011
0.097904027 0.23318303 -0.98700011
0.10353805 0.23338929 -0.98600006
0.1066242 0.23471683 -0.98600006
0.1127965 0.23471683 -0.98600006
0.13395868 0.23471683 -0.98600006
0.13748571 0.23471683 -0.98600006
0.14101274 0.23471683 -0.98600006
0.073339887 0.23543097 -0.98900002
0.076877646 0.23631871 -0.98900002
0.082184285 0.23631871 -0.98900002
0.087490939 0.23631869 -0.98900002
0.092443801 0.23614116 -0.98900002
0.098104224 0.23543099 -0.98900002
0.10252642 0.23631869 -0.98900002
0.10739084 0.23765028 -0.98900002
0.11190148 0.23791659 -0.98900002
0.11770171 0.23748489 -0.98720008
0.12236675 0.2376288 -0.98780006
0.12817518 0.23720643 -0.98900002
0.13259739 0.23720641 -0.98900002
0.13701957 0.23809414 -0.98900002
0.14218143 0.23785429 -0.98800004
0.14740895 0.23773438 -0.98750007
0.14763287 0.24075732 -0.98900002
-0.047478501 0.21343787 -0.98175007
-0.04349377 0.21371441 -0.98100007
-0.037791412 0.21415469 -0.98100013
-0.009718257 0.21415468 -0.98100007
-0.046706673 0.21745929 -0.98400003
-0.043100804 0.21701729 -0.98200011
-0.037791412 0.21679631 -0.98100007
-0.032527696 0.21679631 -0.98100007
-0.027013328 0.2171737 -0.98100007
-0.022000263 0.21767685 -0.98100007
-0.017613832 0.21767686 -0.98100007
-0.013227401 0.21767685 -0.98100007
-0.0082143387 0.21818002 -0.98100007
-0.0026999679 0.21855739 -0.98100007
0.002563749 0.21855739 -0.98100007
0.0073888223 0.21899764 -0.98100007
0.01133661 0.21943793 -0.98100007
-0.037027013 0.22010899 -0.98400003
-0.032627173 0.22010899 -0.98400009
-0.028227324 0.22010899 -0.98400003
-0.021187574 0.22187546 -0.98400003
-0.016787728 0.22187547 -0.98400009
-0.012387883 0.22187546 -0.98400003
-0.0079880385 0.22187547 -0.98400009
-0.0027082246 0.22187547 -0.98400009
0.0025645737 0.22142451 -0.98200005
0.0081890281 0.22217618 -0.98220009
0.013111198 0.22242045 -0.98250008
0.017504336 0.22242047 -0.98250002
0.021874292 0.22219318 -0.98150009
0.027127761 0.22207956 -0.98100007
0.032391474 0.22207956 -0.98100007
0.037655197 0.22207956 -0.98100007
0.043269824 0.22366452 -0.98100007
0.048182629 0.22472116 -0.98100013
0.052569058 0.22472116 -0.98100007
0.056078203 0.22472116 -0.98100007
0.022810875 0.22540839 -0.98400003
0.02721072 0.22540841 -0.98400009
0.032490533 0.22540841 -0.98400009
0.037770346 0.22540841 -0.98400009
0.043050162 0.22658603 -0.98400009
0.047450006 0.22717485 -0.98400003
0.051849853 0.22717485 -0.98400009
0.057069816 0.22694397 -0.98300004
0.062647305 0.22746587 -0.98220009
0.067550823 0.22759545 -0.98200011
0.072746634 0.22824334 -0.98100013
0.07801035 0.22824334 -0.98100013
0.082396783 0.22824334 -0.98100007
0.087221853 0.22780305 -0.98100007
0.092141651 0.22759548 -0.98200005
0.09740895 0.22759548 -0.98200005
0.10257437 0.2273628 -0.98100007
0.10783808 0.22824334 -0.98100013
0.1122245 0.22824334 -0.98100007
0.074729048 0.23070779 -0.98400003
0.077368952 0.23070779 -0.98400003
0.081768796 0.23070781 -0.98400009
0.087048613 0.23070781 -0.98400009
0.092328429 0.23070781 -0.98400009
0.097608238 0.23070781 -0.98400009
0.10278171 0.23047334 -0.98300004
0.10826419 0.23198968 -0.98287499
0.11321619 0.23112121 -0.98200005
0.11726509 0.23232317 -0.98228586
0.12178375 0.23257475 -0.98228574
0.12679559 0.23326485 -0.98175001
0.13240209 0.23235252 -0.98100013
0.13766581 0.23176549 -0.98100013
0.14314672 0.2325615 -0.98250008
0.14792253 0.23225343 -0.98212498
-0.048389733 0.20845214 -0.9780001
-0.042923462 0.20998839 -0.97800004
-0.037675843 0.20998839 -0.97800004
-0.042048857 0.21174407 -0.97800004
-0.037675843 0.21174407 -0.97800004
-0.032428224 0.21262193 -0.9780001
-0.027180605 0.21262193 -0.9780001
-0.021932986 0.21349977 -0.97800004
-0.017559968 0.21262193 -0.97800004
-0.013186952 0.21262193 -0.9780001
-0.0075894902 0.21244636 -0.9780001
-0.0026917111 0.21262193 -0.9780001
0.0021186068 0.21306084 -0.97800004
0.0078035286 0.21349977 -0.97800004
0.011301941 0.21349977 -0.97800004
-0.0070647281 0.21525547 -0.97800004
-0.0026917113 0.21525547 -0.97800004
0.0025559086 0.21525547 -0.97800004
0.0081533697 0.21595776 -0.9780001
0.013051148 0.2173038 -0.9780001
0.017424162 0.217889 -0.97800004
0.02179718 0.21788904 -0.9780001
0.027044799 0.21876685 -0.97800004
0.032292422 0.21876685 -0.97800004
0.037540041 0.21876685 -0.97800004
0.042787664 0.21876685 -0.97800004
0.042787664 0.22052257 -0.97800004
0.048035275 0.22140041 -0.9780001
0.052408297 0.22140041 -0.97800004
0.056781311 0.22227824 -0.9780001
0.06202893 0.22315609 -0.9780001
0.067276552 0.22315609 -0.9780001
0.072524175 0.22315609 -0.9780001
0.077771798 0.22315609 -0.9780001
0.082582101 0.22359502 -0.97800004
0.087392427 0.22403395 -0.97800004
0.091765448 0.22315609 -0.9780001
0.097013071 0.22315609 -0.9780001
0.10226069 0.22403395 -0.97800004
0.10575909 0.22403395 -0.97800004
0.072524175 0.22578964 -0.97800004
0.077771798 0.22578964 -0.97800004
0.083019406 0.22578964 -0.97800004
0.086517826 0.22578964 -0.97800004
0.1075083 0.22578964 -0.97800004
0.11319321 0.22622855 -0.97800004
0.11800355 0.22754535 -0.97800004
0.12237656 0.22842319 -0.97800004
0.12674958 0.22842316 -0.9780001
0.1319972 0.22930104 -0.97800004
0.13768212 0.22886211 -0.97800004
0.14284228 0.22859876 -0.9780001
0.14730276 0.22798426 -0.97800004
0.12762418 0.23105673 -0.97800004
0.130248 0.23105673 -0.97800004
-0.047926597 0.20367466 -0.97300005
-0.042660128 0.20346533 -0.97200006
-0.046279475 0.20584361 -0.97500002
-0.042791795 0.20671877 -0.97500002
-0.037484121 0.20629564 -0.97300005
-0.032483887 0.20741485 -0.97312504
-0.027055539 0.20814972 -0.97350013
-0.021832064 0.20814972 -0.97350001
-0.017479168 0.2081497 -0.97350001
-0.013126275 0.20814972 -0.97350001
-0.0083435066 0.20874697 -0.97425008
-0.0026834542 0.20934424 -0.97500008
0.002540228 0.20870011 -0.97200006
-0.021865707 0.21109454 -0.97500008
0.0034199888 0.21109454 -0.97500002
0.0077795917 0.21109454 -0.97500008
0.013496382 0.21240769 -0.97414291
0.018205218 0.21240826 -0.97299999
0.022555877 0.21240827 -0.97300005
0.02687888 0.21218996 -0.972
0.026961841 0.21634549 -0.97500008
0.032193363 0.21634549 -0.97500008
0.037424885 0.21634549 -0.97500008
0.042656414 0.21634549 -0.97500008
0.047887933 0.21722066 -0.97500002
0.053091317 0.21710971 -0.97450006
0.057894487 0.21839328 -0.97320002
0.062110245 0.21887755 -0.9738
0.066597596 0.21874228 -0.97320002
0.072229341 0.21962063 -0.97399998
0.077294663 0.21916966 -0.97200006
0.082510099 0.21916966 -0.97200006
0.087725513 0.21916966 -0.97200006
0.093130395 0.21962063 -0.97399998
0.098156378 0.21916966 -0.97200006
0.10250255 0.21916965 -0.97200006
0.083636671 0.22159642 -0.97500002
0.087124348 0.22159642 -0.97500002
0.101947 0.22159642 -0.97500008
0.10732942 0.22188745 -0.97320002
0.11241005 0.22334674 -0.97500008
0.11727959 0.22265951 -0.97200006
0.12249502 0.22265951 -0.97200006
0.12805812 0.22335747 -0.97200006
0.13292587 0.22353196 -0.97200006
0.1381413 0.22353196 -0.97200006
0.14248747 0.2226595 -0.97200006
0.14683367 0.22265951 -0.97200006
0.11764157 0.22509703 -0.97500008
0.12287309 0.22509703 -0.97500008
0.1281046 0.22597219 -0.97500002
0.1324642 0.22684735 -0.97500002
0.13595188 0.22684735 -0.97500002
0.14205533 0.22568047 -0.97500008
0.14728686 0.22509703 -0.97500008
-0.047919344 0.1978832 -0.96785724
-0.042873066 0.19851281 -0.96700007
-0.037252083 0.1989468 -0.96700013
-0.032063492 0.1989468 -0.96700013
-0.026874891 0.1989468 -0.96700013
-0.02255106 0.1989468 -0.96700007
-0.018227227 0.1989468 -0.96700013
-0.047777049 0.20130536 -0.97000003
-0.042572349 0.20130536 -0.97000003
-0.037330028 0.20196849 -0.96900004
-0.031872489 0.20228234 -0.96871436
-0.026930476 0.20283917 -0.9690001
-0.021952946 0.20310868 -0.96925008
-0.017763857 0.20253111 -0.96871436
-0.013052113 0.20262982 -0.96800011
-0.0078549869 0.20339224 -0.96750009
-0.0026614363 0.20372067 -0.96700007
0.0025271613 0.20415466 -0.96700013
0.0077157579 0.20415466 -0.96700013
0.012904356 0.20415466 -0.96700013
0.018092953 0.20415466 -0.96700013
0.022416785 0.20415466 -0.96700007
0.026740616 0.20415466 -0.96700013
-0.0070069386 0.20652935 -0.97000003
-0.002669693 0.20652935 -0.97000003
0.0025350014 0.20652935 -0.97000003
0.0077308225 0.2071871 -0.96900004
0.012944391 0.20740002 -0.97000015
0.018149085 0.20740001 -0.97000015
0.022451557 0.20708063 -0.96850008
0.026823577 0.20740002 -0.97000015
0.031978741 0.20708065 -0.96850008
0.037175387 0.20708065 -0.96850002
0.042349264 0.2069733 -0.96800011
0.047511972 0.20769814 -0.96733338
0.052701168 0.20769814 -0.96733338
0.056142669 0.20762655 -0.96700007
0.032028273 0.21175334 -0.97000015
0.037232958 0.21175335 -0.97000015
0.042422481 0.21168058 -0.96966678
0.04759413 0.21240573 -0.96900004
0.052763544 0.21229568 -0.96850014
0.05752629 0.21214001 -0.96700013
0.06306079 0.2128344 -0.96700013
0.066519856 0.2128344 -0.96700007
0.072573222 0.2128344 -0.96700007
0.076897055 0.2128344 -0.96700013
0.081220888 0.2128344 -0.96700007
0.087274246 0.21457034 -0.96700013
0.092462853 0.21457034 -0.96700013
0.097651444 0.21457034 -0.96700013
0.10284004 0.21457034 -0.96700013
0.10802864 0.21457034 -0.96700013
0.11321723 0.21457034 -0.96700013
0.11754107 0.21457034 -0.96700007
0.1218649 0.21457034 -0.96700013
0.058051743 0.21523604 -0.97000003
0.063256443 0.21523604 -0.97000003
0.067882836 0.21581647 -0.97000003
0.07193093 0.2161067 -0.97000015
0.077135623 0.2161067 -0.97000015
0.082340315 0.2161067 -0.97000015
0.087545022 0.21697736 -0.97000003
0.092749707 0.21697736 -0.97000003
0.097851627 0.21675369 -0.96900004
0.10335352 0.21690941 -0.96775001
0.10808361 0.217287 -0.96750009
0.11287133 0.21700068 -0.96700013
0.11723939 0.21775375 -0.96880007
0.12205394 0.21751249 -0.96850002
0.12725058 0.21751249 -0.96850002
0.13244723 0.21751252 -0.96850008
0.13725424 0.21761845 -0.96820003
0.14261928 0.21804224 -0.96700013
0.1478079 0.21804224 -0.96700013
0.11183359 0.22046003 -0.97000003
0.11703828 0.22046003 -0.97000003
0.12224297 0.22046003 -0.97000003
0.12744766 0.22046003 -0.97000003
0.13265236 0.22046003 -0.97000003
0.13785706 0.22046003 -0.97000003
0.14306174 0.22046003 -0.97000003
0.14739898 0.22046003 -0.97000003
-0.047407638 0.19312671 -0.96250004
-0.042641308 0.19398233 -0.96175003
-0.037020944 0.19426203 -0.96100008
-0.031864546 0.19426203 -0.96100008
-0.027567539 0.19426203 -0.96100003
-0.023270538 0.19426203 -0.96100008
-0.019832935 0.19426203 -0.96100003
-0.041446932 0.19659904 -0.96400005
-0.037136517 0.19659905 -0.96400011
-0.031964019 0.19659905 -0.96400011
-0.026791513 0.19659905 -0.96400011
-0.022481099 0.19659904 -0.96400005
-0.018170681 0.19659905 -0.96400011
-0.012977956 0.1971584 -0.9625001
-0.0078013269 0.19771239 -0.96100008
-0.002644923 0.19771239 -0.96100008
0.0025114808 0.19886252 -0.96100008
0.0076678842 0.19943759 -0.96100008
0.012824288 0.19943759 -0.96100008
0.017980691 0.19943759 -0.96100008
0.023137096 0.19943759 -0.96100008
0.027434096 0.19943757 -0.96100003
-0.0078256801 0.20006017 -0.96400011
-0.0026531797 0.20075238 -0.96400005
0.002088279 0.20135808 -0.96400005
0.0076918211 0.20179074 -0.96400011
0.012864321 0.20179074 -0.96400011
0.018036824 0.20179074 -0.96400011
0.023209324 0.20179074 -0.96400011
0.02751974 0.20179072 -0.96400005
0.03178063 0.20234202 -0.96250004
0.036945082 0.202342 -0.96250004
0.041645676 0.20261496 -0.96175003
0.047347657 0.2035213 -0.96400011
0.052409403 0.20309906 -0.96200007
0.057513118 0.20288794 -0.96100008
0.062669531 0.20403805 -0.96100008
0.066966519 0.2046131 -0.96100003
0.057862621 0.20682137 -0.9632501
0.062058102 0.207286 -0.96220011
0.067825928 0.20806345 -0.96100008
0.072982326 0.20806345 -0.96100008
0.078138731 0.20806345 -0.96100008
0.082435727 0.20892605 -0.96100003
0.086732738 0.20978865 -0.96100008
0.091029733 0.20978864 -0.96100003
0.059416823 0.21044354 -0.96400005
0.062865153 0.21044354 -0.96400011
0.068382494 0.21113577 -0.96400005
0.073210165 0.21044354 -0.96400011
0.077520572 0.21044354 -0.96400005
0.081830993 0.2110204 -0.96400011
0.087003492 0.2121741 -0.96400011
0.09217599 0.2121741 -0.96400011
0.097045541 0.21151382 -0.96100008
0.10220195 0.21151382 -0.96100008
0.10735835 0.21151382 -0.96100008
0.11251476 0.21151382 -0.96100008
0.11767115 0.21151382 -0.96100008
0.12302196 0.21270925 -0.96250004
0.12752141 0.21390466 -0.96400005
0.13183182 0.21390466 -0.96400011
0.13686043 0.21368277 -0.96300006
0.14173438 0.213239 -0.96100008
0.14689077 0.213239 -0.96100008
0.1387285 0.21563523 -0.96400005
0.14217684 0.21563523 -0.96400011
0.14734933 0.21563523 -0.96400011
-0.047137626 0.18744135 -0.95700002
-0.041957904 0.18810271 -0.95600003
-0.036828324 0.18896078 -0.95600003
-0.03255368 0.18896079 -0.95600003
-0.0287065 0.18938985 -0.95600003
-0.023149464 0.1898189 -0.95600003
-0.018019889 0.1898189 -0.95600003
-0.012890312 0.1898189 -0.95600003
-0.0077607366 0.1898189 -0.95600003
-0.046377629 0.19041456 -0.95900005
-0.04208957 0.19127536 -0.95900005
-0.036943898 0.19213615 -0.95900005
-0.031798225 0.19213615 -0.95900005
-0.027510166 0.19213615 -0.95900005
-0.023222107 0.19213615 -0.95900005
-0.01773339 0.1928248 -0.95900005
-0.012910537 0.19269642 -0.9575001
-0.0077729132 0.19269644 -0.9575001
-0.0026311614 0.19239321 -0.95600003
0.0024984139 0.19239321 -0.95600003
0.0076279892 0.19239321 -0.95600003
0.012415593 0.19256483 -0.95600003
0.017887138 0.1932513 -0.95600003
0.023016714 0.1932513 -0.95600003
0.028573755 0.19368035 -0.95600003
0.033275869 0.19410941 -0.95600003
0.037265535 0.19439545 -0.95600003
0.040970229 0.19496751 -0.95600003
-0.0077850902 0.19557934 -0.95900005
-0.0026394182 0.19557934 -0.95900005
0.0028492988 0.19626796 -0.95900005
0.0076519265 0.1964401 -0.95900005
0.012797598 0.19644013 -0.95900005
0.017943271 0.19644013 -0.95900005
0.023088943 0.1964401 -0.95900005
0.028234614 0.19701397 -0.95900005
0.032522671 0.19816171 -0.95900005
0.036810737 0.19816172 -0.95900005
0.041911762 0.19795597 -0.95800006
0.047028404 0.19785312 -0.9575001
0.052084308 0.1975418 -0.95600003
0.05721388 0.1975418 -0.95600003
0.06234346 0.1975418 -0.95600003
0.067473039 0.1975418 -0.95600003
0.072602607 0.1975418 -0.95600003
0.076877251 0.1983999 -0.95600003
0.081151903 0.1983999 -0.95600003
0.042814016 0.20074409 -0.95900005
0.047102079 0.20074409 -0.95900005
0.052247755 0.20074409 -0.95900005
0.057393424 0.20074409 -0.95900005
0.06288214 0.20143273 -0.95900005
0.067808047 0.20161344 -0.9572857
0.072678544 0.20204343 -0.95700002
0.077578761 0.20199066 -0.95674998
0.082617499 0.20183234 -0.95600003
0.087563872 0.20269041 -0.95600003
0.093120903 0.20354851 -0.95600003
0.098250493 0.20354852 -0.95600003
0.063396707 0.20590885 -0.95900005
0.06768477 0.20590886 -0.95900005
0.072830439 0.20590886 -0.95900005
0.077976108 0.20590886 -0.95900005
0.083464824 0.20659749 -0.95900005
0.088174522 0.20655493 -0.95800006
0.092981145 0.20673451 -0.9575001
0.097312547 0.20741571 -0.958
0.10212322 0.20768459 -0.95825005
0.10702321 0.20741571 -0.958
0.11216351 0.20741571 -0.958
0.11730381 0.20741571 -0.958
0.12244413 0.2074157 -0.95800006
0.12758441 0.20741571 -0.95800006
0.13232137 0.20765838 -0.9568572
0.13772203 0.20805731 -0.95700002
0.14238995 0.20843178 -0.95675004
0.14783637 0.20869713 -0.95600003
0.12342955 0.21107361 -0.95900005
0.12771761 0.21107361 -0.95900005
0.13286328 0.21107361 -0.95900005
0.13800895 0.21107361 -0.95900005
0.14315462 0.21107361 -0.95900005
0.14744268 0.21107361 -0.95900005
-0.046907477 0.18310779 -0.95233339
-0.042186528 0.18337423 -0.95150006
-0.038336627 0.18370445 -0.95100003
-0.040973991 0.1858016 -0.95300007
-0.036712758 0.1858016 -0.95300007
-0.032383423 0.18541168 -0.95100003
-0.0278139 0.18625198 -0.95180005
-0.023052603 0.18646204 -0.95200002
-0.017528687 0.18698722 -0.95250005
-0.012836377 0.18646204 -0.95200008
-0.0077282651 0.18646204 -0.95200008
-0.0026201527 0.18817107 -0.95200008
0.0024879603 0.18817107 -0.95200008
0.0076040514 0.18922323 -0.95300007
0.012707441 0.18909088 -0.95233339
0.017793586 0.18882613 -0.95100009
0.022896335 0.18882613 -0.95100009
0.027999081 0.18882613 -0.95100009
0.033101827 0.18882613 -0.95100009
0.036503658 0.18882613 -0.95100003
0.014422022 0.19093405 -0.95300007
0.017831009 0.19093405 -0.95300007
0.022944486 0.19093405 -0.95300007
0.028057963 0.19093405 -0.95300007
0.033171441 0.19093405 -0.95300007
0.038592964 0.19145809 -0.95220006
0.042680882 0.19214241 -0.95220006
0.046535823 0.1930187 -0.95242864
0.051866379 0.19329813 -0.95200008
0.056974493 0.19329815 -0.95200008
0.062540442 0.1938269 -0.95250005
0.067190722 0.19329813 -0.95200008
0.07229884 0.19329815 -0.95200008
0.077378646 0.19408378 -0.95166671
0.082428373 0.19394782 -0.95100009
0.07791438 0.19649421 -0.95300007
0.082942627 0.19675083 -0.95300007
0.087812766 0.19730449 -0.9517501
0.09331423 0.19736227 -0.95100003
0.097522482 0.19742157 -0.95128584
0.10283937 0.19736227 -0.95100009
0.10709165 0.19906949 -0.95100003
0.07919275 0.20119895 -0.95300007
0.083453983 0.20119895 -0.95300007
0.087715209 0.20119897 -0.95300007
0.09268257 0.20130996 -0.9515
0.097942173 0.20119897 -0.95300007
0.10294752 0.20184323 -0.95200008
0.10805562 0.20184323 -0.95200008
0.11316373 0.20184323 -0.95200008
0.11742049 0.20184323 -0.95200002
0.12246291 0.20259039 -0.9515
0.1278761 0.20205681 -0.95166671
0.13220666 0.20333858 -0.95180005
0.1370016 0.20355225 -0.95200008
0.1420096 0.20340914 -0.9513334
0.14706318 0.20333754 -0.95100009
0.14311123 0.20633139 -0.95300007
0.14737247 0.2063314 -0.95300007
-0.048055358 0.17783283 -0.94700003
-0.043256667 0.17868257 -0.94700003
-0.038149104 0.17855617 -0.94633341
-0.03305915 0.17849299 -0.94600004
-0.027983231 0.17849296 -0.94600004
-0.023330305 0.17891753 -0.94600004
-0.017831394 0.17934209 -0.94600004
-0.012755476 0.17934209 -0.94600004
-0.0085255438 0.17934209 -0.94600004
-0.041606791 0.1814231 -0.94800007
-0.037791803 0.18184856 -0.94800007
-0.033129044 0.18227403 -0.94800007
-0.028023271 0.18214643 -0.94733346
-0.022931529 0.18208265 -0.94700003
-0.018066898 0.18276867 -0.94725007
-0.01276896 0.18208265 -0.94700015
-0.0076876758 0.18208265 -0.94700015
-0.0026054736 0.18286856 -0.94666672
0.0024740219 0.18286856 -0.94666672
0.0075529218 0.18371771 -0.94666672
0.012870151 0.18327953 -0.94628584
0.017502571 0.18309709 -0.94675004
0.022800028 0.1837827 -0.94700003
0.027881313 0.1837827 -0.94700003
0.032962598 0.1837827 -0.94700015
0.038003709 0.18358773 -0.94600004
0.042656638 0.18401229 -0.94600004
0.048155542 0.18443684 -0.94600004
0.052385475 0.18443684 -0.94600004
0.0075641563 0.18652862 -0.94800013
0.012650806 0.18652862 -0.94800013
0.017737456 0.18652862 -0.94800013
0.022824107 0.18652862 -0.94800013
0.027910754 0.18652862 -0.94800013
0.032997407 0.18652862 -0.94800013
0.038423162 0.18720935 -0.94800007
0.043170702 0.18737954 -0.94800007
0.048223417 0.18809929 -0.94733334
0.052811328 0.18781871 -0.9471429
0.057508916 0.18799327 -0.94680005
0.062107977 0.18909271 -0.9472
0.066837825 0.18888283 -0.94700003
0.07217218 0.18854703 -0.94714296
0.076769799 0.18854703 -0.9471429
0.082081676 0.18888281 -0.94700003
0.087070927 0.18868247 -0.94600004
0.092146836 0.18953161 -0.94600004
0.09722276 0.18953161 -0.94600004
0.10229868 0.18953161 -0.94600004
0.10737459 0.18953161 -0.94600004
0.060973976 0.19163415 -0.94800007
0.077081703 0.19163415 -0.94800013
0.082168356 0.19163415 -0.94800013
0.087255001 0.19248508 -0.94800007
0.092341654 0.19248508 -0.94800007
0.097428307 0.19248508 -0.94800007
0.10247831 0.19241768 -0.94766676
0.10745026 0.19306405 -0.94666672
0.112298 0.19303007 -0.9465
0.11752643 0.19292811 -0.94600004
0.12260236 0.19462636 -0.94600004
0.12767828 0.19462636 -0.94600004
0.13275419 0.19462636 -0.94600004
0.13783011 0.19462636 -0.94600004
0.091493875 0.19673967 -0.94800007
0.098276079 0.19673966 -0.94800007
0.10251495 0.19673966 -0.94800013
0.10802549 0.19716512 -0.94800007
0.11264803 0.19752142 -0.94766676
0.11765067 0.19738305 -0.94700003
0.12273197 0.19738305 -0.94700015
0.12781325 0.19738305 -0.94700003
0.13289453 0.19738305 -0.94700003
0.13812152 0.19759059 -0.94800007
0.14310686 0.19745223 -0.94733334
0.14813837 0.19738305 -0.94700015
0.11947045 0.20014334 -0.94800007
0.12286156 0.20014334 -0.94800013
0.12794819 0.20014334 -0.94800007
0.13303486 0.20014334 -0.94800013
0.13812152 0.20014334 -0.94800013
0.14320818 0.20014334 -0.94800013
0.14829481 0.20014334 -0.94800013
-0.048033476 0.17332637 -0.9410001
-0.042936921 0.17314218 -0.94000006
-0.037556943 0.17246719 -0.94000006
-0.032849468 0.17314218 -0.94000006
-0.022762023 0.17482966 -0.94000006
-0.01939954 0.17482966 -0.94000006
-0.046447165 0.17538762 -0.94300002
-0.043073952 0.17538762 -0.94300002
-0.038014136 0.17538762 -0.94300002
-0.032954309 0.17538762 -0.94300002
-0.027894489 0.17538762 -0.94300002
-0.021991365 0.1770805 -0.94300002
-0.017774846 0.1770805 -0.94300002
-0.012715025 0.1770805 -0.94300002
-0.0072288048 0.17736287 -0.94225007
-0.0025912537 0.17764525 -0.94150013
0.0021250551 0.17787087 -0.94180012
0.0075003235 0.17820463 -0.94000006
0.012544049 0.17820463 -0.94000006
0.017587774 0.17820463 -0.94000006
0.022631496 0.17820463 -0.94000006
0.027675223 0.17820463 -0.94000006
0.032718949 0.17820463 -0.94000006
0.042806398 0.17989211 -0.94000006
0.0075242613 0.18046622 -0.94300002
0.01174078 0.18046622 -0.94300002
0.019330511 0.18046622 -0.94300002
0.022703726 0.18046622 -0.94300002
0.027763546 0.18046622 -0.94300002
0.032823369 0.18046622 -0.94300002
0.037883189 0.18046622 -0.94300002
0.043786317 0.18215908 -0.94300002
0.048002835 0.1821591 -0.94300002
0.053398561 0.18229255 -0.94150007
0.057655938 0.18328387 -0.94225007
0.063046508 0.18346202 -0.9410001
0.068025023 0.18326706 -0.94000006
0.073068738 0.18326706 -0.94000006
0.078112468 0.18326706 -0.94000006
0.083156191 0.18326706 -0.94000006
0.088620223 0.18368892 -0.94000006
0.092907391 0.18427955 -0.94000006
0.098287366 0.18495455 -0.94000006
0.063182294 0.18554482 -0.94300002
0.068242118 0.18554482 -0.94300002
0.071615331 0.18554482 -0.94300002
0.077518463 0.18554482 -0.94300002
0.081734978 0.18554482 -0.94300002
0.086794794 0.18554482 -0.94300002
0.091854617 0.18723768 -0.94300002
0.09691444 0.18723768 -0.94300002
0.10197427 0.18723768 -0.94300002
0.10703409 0.18723768 -0.94300002
0.1119156 0.18778627 -0.94150013
0.11696737 0.18778627 -0.94150013
0.12201916 0.18778627 -0.94150007
0.1266931 0.18755743 -0.94120008
0.13107157 0.18664201 -0.94000006
0.11378051 0.19231628 -0.94300002
0.11715373 0.19231628 -0.94300002
0.12201913 0.19116662 -0.94150007
0.1270709 0.19116662 -0.94150007
0.13182855 0.19139656 -0.94180006
0.13739301 0.19231628 -0.94300002
0.14222625 0.19285679 -0.94150007
0.14697501 0.19343297 -0.94225001
-0.047725432 0.16886422 -0.93500012
-0.042730477 0.16811526 -0.93550009
-0.037752107 0.16829585 -0.93650001
-0.032711476 0.16904482 -0.93600005
-0.047878563 0.17108992 -0.93800008
-0.04284557 0.17108992 -0.93800008
-0.039490238 0.1710899 -0.93800002
-0.032779582 0.17108992 -0.93800008
-0.027746586 0.17193185 -0.93800008
-0.022702381 0.17184065 -0.93750012
-0.017449686 0.17235811 -0.93687505
-0.01262573 0.1724686 -0.93633336
-0.0078334063 0.17278048 -0.93542868
-0.0023643265 0.17243102 -0.935
0.0022046324 0.17270079 -0.93500006
0.0074604293 0.17306046 -0.93500006
0.012142865 0.17322831 -0.93500006
0.01749422 0.17389971 -0.93500012
0.022511117 0.17389971 -0.93500012
0.027528014 0.17389971 -0.93500012
0.032544911 0.17389971 -0.93500012
0.0041290368 0.17614156 -0.93800002
0.0074843662 0.17614156 -0.93800008
0.012517358 0.17614156 -0.93800008
0.017550351 0.17614156 -0.93800008
0.022583343 0.17614156 -0.93800008
0.027616337 0.17614156 -0.93800008
0.032649331 0.17614156 -0.93800008
0.037661344 0.17688963 -0.9375
0.042647012 0.17670184 -0.93650001
0.047697406 0.17763768 -0.9370001
0.052686922 0.17751129 -0.93633336
0.057416134 0.17781831 -0.93542868
0.062646285 0.17809597 -0.93500006
0.067663178 0.17809597 -0.93500006
0.072719835 0.17819166 -0.93550003
0.077821627 0.17838304 -0.93650007
0.082846567 0.17838304 -0.93650001
0.087823704 0.17828736 -0.93600005
0.092413202 0.17826383 -0.93500006
0.097764552 0.17893521 -0.93500012
0.10278146 0.17893521 -0.93500012
0.10779835 0.17893521 -0.93500012
0.1119791 0.17893521 -0.93500006
0.058653131 0.18119323 -0.93800002
0.062847301 0.18119323 -0.93800008
0.067880288 0.18119323 -0.93800008
0.072913282 0.18119323 -0.93800008
0.077946275 0.18119323 -0.93800008
0.082979262 0.18119323 -0.93800008
0.088012263 0.18119323 -0.93800008
0.093464673 0.18161421 -0.93800002
0.098025076 0.18193862 -0.93750012
0.10300131 0.18268397 -0.9370001
0.10802894 0.18268397 -0.9370001
0.11305656 0.18268394 -0.9370001
0.11808419 0.18268396 -0.9370001
0.12311182 0.18268394 -0.9370001
0.12807107 0.18342662 -0.93650001
0.13302407 0.18332824 -0.93600005
0.13789973 0.1831315 -0.93500006
0.14249855 0.18271185 -0.93500006
0.14709736 0.18229222 -0.93500006
0.12911503 0.18792878 -0.93800002
0.13372685 0.18784292 -0.93757159
0.13780063 0.18726952 -0.93575007
0.14251025 0.18752988 -0.93599999
0.14773984 0.18767752 -0.93590003
0.14756933 0.19129656 -0.93800002
-0.04713754 0.16362043 -0.93000013
-0.042895984 0.16337 -0.93000007
-0.037490077 0.16295263 -0.93000007
-0.032500014 0.16462216 -0.93000007
-0.04804052 0.16640937 -0.93300003
-0.041782815 0.16515318 -0.93300003
-0.037611015 0.16515318 -0.93300003
-0.032604851 0.1668281 -0.93300003
-0.027554315 0.16739735 -0.93150008
-0.022556197 0.16739735 -0.93150014
-0.017529808 0.16796121 -0.93000007
-0.012539739 0.16796121 -0.93000007
-0.0025633187 0.16832241 -0.93200004
0.00243129 0.16814181 -0.93100011
0.0074205333 0.16796121 -0.93000007
0.012410602 0.16796121 -0.93000007
0.016568989 0.1679612 -0.93000007
0.022390734 0.16963074 -0.93000007
0.025717447 0.16963072 -0.93000007
-0.0067396639 0.17017792 -0.93300003
-0.0042365808 0.17017792 -0.93300003
0.0032726661 0.17017792 -0.93300003
0.0074444702 0.17017792 -0.93300003
0.012867815 0.17059666 -0.93300003
0.0174568 0.17101538 -0.93300003
0.022462964 0.17185283 -0.93300003
0.027469128 0.17185283 -0.93300003
0.032438703 0.17166863 -0.9320001
0.037421197 0.172414 -0.93150008
0.042419314 0.17241399 -0.93150008
0.047367424 0.17222801 -0.93050015
0.051956162 0.17269188 -0.93075007
0.057321213 0.17296979 -0.93000007
0.093915038 0.1746393 -0.93000007
0.097241752 0.17463931 -0.93000007
0.10223182 0.17463931 -0.93000007
0.10722189 0.17463931 -0.93000007
0.11221197 0.17463931 -0.93000007
0.058340475 0.17520265 -0.93300003
0.062512279 0.17520265 -0.93300003
0.067518443 0.17520265 -0.93300003
0.072524607 0.17520265 -0.93300003
0.077530771 0.17520265 -0.93300003
0.082536936 0.17520265 -0.93300003
0.087543115 0.17520265 -0.93300003
0.092549279 0.17576097 -0.93300003
0.097555444 0.17687759 -0.93300003
0.10256161 0.17687759 -0.93300003
0.10733896 0.17649841 -0.93100011
0.11299111 0.17729631 -0.93300003
0.11739106 0.17743066 -0.93150008
0.12238918 0.17743066 -0.93150014
0.12686753 0.1777045 -0.93075007
0.13217223 0.17797837 -0.93000007
0.1371623 0.17797837 -0.93000007
0.14215237 0.17797837 -0.93000007
0.14714243 0.17797835 -0.93000007
0.12759243 0.18022738 -0.93300003
0.13259861 0.18022738 -0.93300003
0.13760476 0.18022738 -0.93300003
0.14294468 0.18156733 -0.93300003
0.14761709 0.18190229 -0.93300003
-0.047766469 0.15764838 -0.92500013
-0.042251758 0.15875542 -0.92500007
-0.037288517 0.15875542 -0.92500007
-0.047368124 0.16093624 -0.92800009
-0.042388789 0.16093624 -0.92800009
-0.037370931 0.16076282 -0.92700005
-0.032377698 0.16150908 -0.92650002
-0.027402077 0.16231194 -0.92633343
-0.022666279 0.16277857 -0.9262858
-0.017435562 0.1629068 -0.92500013
-0.01247232 0.1629068 -0.92500013
-0.0075090807 0.1629068 -0.92500013
-0.0025458415 0.1629068 -0.92500013
0.0024173984 0.1629068 -0.92500013
0.0073806378 0.1629068 -0.92500013
0.011930273 0.16332193 -0.92500007
0.017307116 0.16373709 -0.92500007
0.03716008 0.16373709 -0.92500007
-0.017492108 0.16593406 -0.92800009
-0.012512771 0.16593406 -0.92800009
-0.0075334348 0.166767 -0.92800009
-0.0025540981 0.16593406 -0.92800009
0.0024252385 0.16593406 -0.92800009
0.0074045747 0.16593406 -0.92800009
0.012383911 0.16593406 -0.92800009
0.017765503 0.16621642 -0.92725003
0.022342585 0.166767 -0.92800009
0.027496271 0.16719058 -0.92687505
0.032242648 0.16730078 -0.92633343
0.037200246 0.16724057 -0.92600006
0.042184632 0.16730076 -0.92633343
0.04718836 0.16742118 -0.92700005
0.052162331 0.16742118 -0.92700005
0.057074666 0.16724057 -0.92600006
0.062021535 0.16717978 -0.92566681
0.066963039 0.16711898 -0.92533344
0.071902752 0.16788845 -0.92500013
0.076865993 0.16871874 -0.92500007
0.081829235 0.16871874 -0.92500007
0.086792469 0.16871874 -0.92500007
0.091755711 0.16871874 -0.92500007
0.096718952 0.16871874 -0.92500007
0.10250939 0.16871873 -0.92500007
0.10829984 0.16871874 -0.92500007
0.11160867 0.16871873 -0.92500007
0.053048491 0.17093186 -0.92800003
0.05719794 0.17093186 -0.92800009
0.062177271 0.17176482 -0.92800009
0.067156613 0.17176484 -0.92800009
0.072057329 0.17158064 -0.92700005
0.076990634 0.17148852 -0.92650008
0.08196193 0.17148852 -0.92650002
0.087027937 0.17167275 -0.92750001
0.092053294 0.17176482 -0.92800009
0.096979462 0.17167273 -0.92750001
0.10229621 0.17133006 -0.9262858
0.10764557 0.17148855 -0.92650008
0.11261687 0.17148852 -0.92650008
0.11725987 0.17307264 -0.92671442
0.12255944 0.17315178 -0.92650002
0.12753072 0.17315178 -0.92650008
0.13204832 0.17337416 -0.92680007
0.13686733 0.17426375 -0.92800009
0.14232861 0.17384122 -0.92575014
0.14800575 0.17370038 -0.92500007
0.12773854 0.17592967 -0.92800003
0.131888 0.17592967 -0.92800009
0.13686733 0.17592967 -0.92800009
0.14184666 0.17592967 -0.92800009
0.14682601 0.17659605 -0.92800009
0.14848578 0.18092747 -0.92800003
-0.046012353 0.15565059 -0.92300004
-0.042985819 0.15675521 -0.92300004
-0.032255385 0.15841219 -0.92300004
-0.027302876 0.15841219 -0.92300004
-0.023175787 0.15841217 -0.92300004
-0.021524951 0.16006912 -0.92300004
-0.017397862 0.16006914 -0.92300004
-0.012445353 0.16006914 -0.92300004
-0.0074928449 0.16006914 -0.92300004
-0.0025403367 0.16006914 -0.92300004
0.0024121716 0.16006914 -0.92300004
0.0073646801 0.16006914 -0.92300004
0.012317188 0.16089761 -0.92300004
0.017269697 0.16172609 -0.92300004
0.021809494 0.16296881 -0.92300004
0.025523877 0.16338305 -0.92300004
0.032952636 0.16338305 -0.92300004
0.042032238 0.16338305 -0.92300004
0.046984743 0.16338305 -0.92300004
0.051937252 0.16338305 -0.92300004
0.056889765 0.16338305 -0.92300004
0.061842274 0.16338305 -0.92300004
0.066794783 0.16338305 -0.92300004
0.071747288 0.16504002 -0.92300004
0.076699793 0.16669697 -0.92300004
0.082477719 0.16669697 -0.92300004
0.088255644 0.16669697 -0.92300004
0.093208157 0.16669697 -0.92300004
0.098160669 0.16669697 -0.92300004
0.10278302 0.16603419 -0.92300004
0.10806569 0.16669697 -0.92300004
0.11301818 0.16752544 -0.92300004
0.1179707 0.17001089 -0.92300004
0.12292321 0.17001089 -0.92300004
0.12787572 0.17001089 -0.92300004
0.13282822 0.17083937 -0.92300004
0.13778073 0.17166786 -0.92300004
0.14108241 0.17166786 -0.92300004
-0.046892315 0.15189692 -0.91866678
-0.042193182 0.15317695 -0.91857153
-0.037006333 0.15343408 -0.9180001
-0.032491129 0.15384606 -0.91800004
-0.027154975 0.15425806 -0.9180001
-0.023050241 0.15425806 -0.91800004
-0.012377935 0.15425806 -0.9180001
-0.0074522551 0.15425806 -0.9180001
-0.0025265757 0.15425806 -0.9180001
0.0015781575 0.15425806 -0.91800004
-0.0403779 0.15624571 -0.92000002
-0.03708696 0.15624571 -0.92000002
-0.032150548 0.15624571 -0.92000002
-0.027214136 0.15624571 -0.92000002
-0.021843035 0.15648876 -0.91900003
-0.017322466 0.15690167 -0.91900003
-0.012391418 0.15690166 -0.91900009
-0.007452256 0.15673003 -0.9180001
-0.0025293278 0.15690167 -0.91900009
0.0024002504 0.15684445 -0.91866672
0.0073247841 0.15673004 -0.9180001
0.012255508 0.15733717 -0.91833341
0.017194854 0.15855145 -0.91900009
0.022101825 0.15837803 -0.9180001
0.027027503 0.15920201 -0.9180001
0.031953186 0.15837801 -0.9180001
0.036550488 0.15854283 -0.91800004
0.040983595 0.15920201 -0.91800004
0.058223478 0.15920201 -0.9180001
0.063149154 0.15920201 -0.9180001
0.068074837 0.15920201 -0.9180001
0.072179571 0.15920201 -0.91800004
0.02297271 0.16120043 -0.92000002
0.027415482 0.16186106 -0.92000002
0.032022797 0.16120043 -0.92000002
0.036931235 0.16108362 -0.9193334
0.041804545 0.16084999 -0.9180001
0.046832033 0.16120043 -0.92000002
0.051768444 0.16120043 -0.92000002
0.057527591 0.16120043 -0.92000002
0.063286744 0.16120043 -0.92000002
0.068634517 0.16161333 -0.92000002
0.073303238 0.16217935 -0.91885722
0.077963516 0.16257745 -0.91844451
0.082871534 0.16253772 -0.91822231
0.087777548 0.16249797 -0.9180001
0.092770554 0.16261718 -0.91866672
0.097699814 0.16261718 -0.91866672
0.10259242 0.16228293 -0.91833347
0.10759735 0.16350079 -0.91900009
0.11199547 0.16373396 -0.91800004
0.11733164 0.16414598 -0.9180001
0.12225732 0.16414598 -0.9180001
0.12800394 0.16414596 -0.91800004
0.13046679 0.16414596 -0.91800004
0.11429632 0.16615516 -0.92000002
0.11745945 0.16680035 -0.91900003
0.12239049 0.16680035 -0.91900009
0.12732154 0.16680035 -0.91900003
0.13245782 0.16741925 -0.91900009
0.13713387 0.16756473 -0.91866672
0.141994 0.16748288 -0.91822231
0.14688572 0.1679128 -0.9180001
0.14309205 0.17110988 -0.92000002
0.14720574 0.17110988 -0.92000002
-0.047717176 0.14724611 -0.91445458
-0.04215844 0.14825374 -0.91400003
-0.036804777 0.14850084 -0.91300005
-0.031905927 0.14850084 -0.91300005
-0.027823547 0.14850084 -0.91300005
-0.0074116662 0.14850084 -0.91300005
-0.0025128145 0.14850084 -0.91300005
0.0023860373 0.14850084 -0.91300005
0.0064684134 0.14850084 -0.91300005
-0.040976718 0.15046875 -0.91500002
-0.036885403 0.15046875 -0.91500008
-0.031648513 0.1511258 -0.91500008
-0.027047109 0.15118043 -0.91433334
-0.021902107 0.15150109 -0.91414291
-0.0172345 0.15200172 -0.91433334
-0.012324002 0.15112561 -0.91400003
-0.0074245995 0.15123525 -0.91466677
-0.0025183191 0.15129006 -0.91500008
0.0026230493 0.15154809 -0.91442859
0.007293357 0.15196475 -0.91411114
0.011961901 0.15239118 -0.91385722
0.016756002 0.15276228 -0.91300005
0.021981444 0.15341787 -0.91300005
0.026880294 0.15341787 -0.91300005
0.031779148 0.15341787 -0.91300005
0.036677998 0.15341787 -0.91300005
0.013846958 0.15539655 -0.91500002
0.017120015 0.15539655 -0.91500008
0.022029597 0.15539655 -0.91500008
0.02693918 0.15621786 -0.91500008
0.031848758 0.15539655 -0.91500008
0.037705977 0.15558921 -0.91420001
0.043091066 0.15674341 -0.91433334
0.048178911 0.15692593 -0.91433334
0.053084914 0.15692592 -0.91433334
0.057655871 0.15624624 -0.91420001
0.062942788 0.15703915 -0.91500008
0.06785237 0.15703915 -0.91500008
0.073171087 0.1574498 -0.91500002
0.077614941 0.15692592 -0.91433334
0.082520947 0.15692593 -0.91433334
0.087167062 0.15703082 -0.91375005
0.092299305 0.15768883 -0.91400003
0.096898191 0.1578874 -0.91420001
0.10221945 0.15868174 -0.91500008
0.10704979 0.15856612 -0.91433334
0.11179372 0.1583349 -0.91300005
0.11750905 0.1599739 -0.91300005
0.12322438 0.1599739 -0.91300005
0.12812325 0.1599739 -0.91300005
0.13302208 0.1599739 -0.91300005
0.13792095 0.1599739 -0.91300005
0.14281979 0.1599739 -0.91300005
0.14771865 0.1599739 -0.91300005
0.10385597 0.16032434 -0.91500002
0.10712903 0.16032434 -0.91500008
0.11236592 0.16098137 -0.91500008
0.1169482 0.16196695 -0.91500008
0.12185778 0.16196695 -0.91500008
0.12635824 0.16237758 -0.91500002
0.13284592 0.16267091 -0.91500008
0.13822308 0.16278824 -0.91500008
0.14307991 0.16272923 -0.91466677
0.14788043 0.16261123 -0.91400003
0.14476918 0.16525213 -0.91500002
0.14886048 0.16525213 -0.91500002
-0.048024099 0.14213975 -0.90900004
-0.043120734 0.14286819 -0.90844452
-0.038430225 0.14300124 -0.90800005
-0.032543194 0.1436125 -0.90800005
-0.02685917 0.14361252 -0.90800011
-0.022799149 0.14442752 -0.90800005
-0.010619092 0.14442752 -0.90800005
-0.0073710768 0.1436125 -0.90800011
-0.002499053 0.1436125 -0.90800011
0.0023729703 0.14361252 -0.90800011
0.007244993 0.14361252 -0.90800011
0.011305012 0.14442752 -0.90800005
-0.041566592 0.14637926 -0.91000003
-0.037497632 0.14637926 -0.91000003
-0.031801086 0.14637926 -0.91000003
-0.026497537 0.14670725 -0.90950006
-0.02201136 0.14703523 -0.90900004
-0.017133972 0.14703523 -0.90900004
-0.012256584 0.14703523 -0.90900004
-0.0073873121 0.14637926 -0.91000003
-0.0025045574 0.14637926 -0.91000003
0.0023781972 0.14637926 -0.91000003
0.0076678474 0.14678767 -0.91000003
0.012333362 0.14764738 -0.90899998
0.017001513 0.14779721 -0.90866673
0.021866016 0.14772414 -0.90822232
0.027545091 0.1485026 -0.90800005
0.03322912 0.14931762 -0.90800011
0.038101144 0.14931762 -0.90800011
0.042973161 0.14931762 -0.90800011
0.047845185 0.14931762 -0.90800011
0.052717209 0.14931762 -0.90800011
0.064085267 0.14931762 -0.90800005
0.018654047 0.15128013 -0.91000003
0.021909218 0.15128013 -0.91000003
0.026791971 0.15128013 -0.91000003
0.032488517 0.15128013 -0.91000003
0.038549107 0.15152231 -0.90900004
0.04305264 0.15204154 -0.90966672
0.047897883 0.15193072 -0.90900004
0.052775271 0.15193072 -0.90900004
0.057875603 0.15225652 -0.90885717
0.062552981 0.15280293 -0.90933335
0.06743215 0.15280293 -0.90933335
0.072258316 0.1526909 -0.90866673
0.077162214 0.15193072 -0.90900004
0.08203961 0.15193072 -0.90900004
0.087163173 0.15230452 -0.90914285
0.092378139 0.15311256 -0.90875006
0.097755305 0.15355766 -0.9082858
0.10197878 0.15366438 -0.90800011
0.11361749 0.15420772 -0.90800005
0.11930152 0.15420772 -0.90800005
0.12173753 0.15420772 -0.90800005
0.14203763 0.15420774 -0.90800011
0.14690965 0.15420774 -0.90800011
0.098405704 0.15618101 -0.91000003
0.10247467 0.15618101 -0.91000003
0.10817122 0.15618101 -0.91000003
0.11333573 0.15641779 -0.90900004
0.11780711 0.1568262 -0.90900004
0.12259393 0.15671059 -0.90833342
0.12742156 0.15665278 -0.90800011
0.1323913 0.1567684 -0.90866673
0.13731667 0.1568262 -0.90900004
0.14219406 0.1568262 -0.90900004
0.14707145 0.1568262 -0.90900004
-0.04840719 0.13360931 -0.90100002
-0.047801431 0.13741839 -0.90477782
-0.043092642 0.13761322 -0.90300012
-0.038461693 0.13851836 -0.90399998
-0.033221699 0.13897395 -0.90433335
-0.027518798 0.13876905 -0.90300006
-0.021451091 0.13828784 -0.90250003
-0.017020877 0.13876906 -0.90300006
-0.012175682 0.13876906 -0.90300006
-0.0073304861 0.13876906 -0.90300006
-0.0024852918 0.13876906 -0.90300006
0.0023599032 0.13876906 -0.90300006
0.0072050984 0.13876906 -0.90300006
0.012023604 0.13846171 -0.90100002
-0.036482278 0.14070104 -0.90500003
-0.032435674 0.14070104 -0.90500003
-0.026770428 0.14070104 -0.90500009
-0.021683266 0.14186153 -0.90500009
-0.017058576 0.1423257 -0.90500003
-0.012404978 0.14212261 -0.90500009
-0.0073467228 0.14070104 -0.90500009
-0.0024907961 0.14070104 -0.90500009
0.00236513 0.14070104 -0.90500009
0.0072210561 0.14070104 -0.90500009
0.012300081 0.14177267 -0.90442866
0.016907167 0.14211801 -0.90366673
0.022063697 0.14201331 -0.90300006
0.027720626 0.14284813 -0.90242869
0.032624967 0.14314833 -0.90250009
0.037863359 0.14352618 -0.90233344
0.0426892 0.14266443 -0.90200007
0.047217272 0.142858 -0.90220004
0.052310806 0.14331411 -0.90100002
0.057145264 0.14331411 -0.90100002
0.061979726 0.14331411 -0.90100002
0.066814192 0.14331411 -0.90100002
0.074065879 0.14493157 -0.90100002
0.027454082 0.14557499 -0.90500003
0.033119332 0.14638731 -0.90500009
0.037961271 0.14633369 -0.90466678
0.042831182 0.14638731 -0.90500009
0.047668945 0.14633369 -0.90466666
0.052484974 0.14622647 -0.90399998
0.057356682 0.14709242 -0.90433335
0.062000968 0.14687593 -0.90425009
0.06706138 0.14709242 -0.90433341
0.071725093 0.1473223 -0.90450007
0.077187099 0.14771003 -0.90385723
0.082755864 0.1479886 -0.90414298
0.087957159 0.14768606 -0.90300012
0.092665911 0.1474674 -0.90166676
0.097432457 0.14735779 -0.90100002
0.1023414 0.14827615 -0.90166676
0.10768256 0.14800879 -0.90250009
0.11206007 0.14752221 -0.90200007
0.11726726 0.14728923 -0.90128577
0.12254548 0.14752221 -0.90200007
0.12766999 0.1475673 -0.90157145
0.13256289 0.14751951 -0.90100002
0.13771966 0.14816651 -0.90100002
0.14255413 0.14816651 -0.90100002
0.14738858 0.14816651 -0.90100002
0.089771807 0.15044893 -0.90500003
0.093009084 0.15044893 -0.90500003
0.097865008 0.15044895 -0.90500009
0.10326049 0.15153202 -0.90500009
0.10757687 0.15207358 -0.90500003
0.11220157 0.15160939 -0.90500009
0.11698918 0.15174581 -0.90425014
0.12229926 0.1515144 -0.90442866
0.12723903 0.15181136 -0.90440005
0.13229771 0.15196274 -0.90433341
0.13743003 0.15197383 -0.90440005
0.14302878 0.15109502 -0.90400004
0.14787933 0.15109502 -0.90400004
-0.047337286 0.12884662 -0.89600003
-0.044132199 0.12965086 -0.89600003
-0.047041424 0.13195539 -0.89800006
-0.042583901 0.13303834 -0.89714295
-0.037736647 0.13372211 -0.8963334
-0.033315018 0.13407421 -0.89600003
-0.028106747 0.13447633 -0.89600009
-0.021987874 0.13409027 -0.89700001
-0.016888931 0.13447633 -0.89600009
-0.012081297 0.13447633 -0.89600009
-0.007273661 0.13447633 -0.89600009
-0.0024660258 0.13447633 -0.89600009
0.0023416094 0.13447633 -0.89600009
0.006347972 0.13447633 -0.89600003
-0.03700316 0.1363886 -0.89800006
-0.032987855 0.1363886 -0.89800012
-0.028169489 0.1363886 -0.89800012
-0.023351118 0.1363886 -0.89800012
-0.016926631 0.1363886 -0.89800012
-0.012108263 0.1363886 -0.89800012
-0.0072898972 0.1363886 -0.89800012
-0.0024715303 0.1363886 -0.89800012
0.0023468365 0.1363886 -0.89800012
0.007158692 0.13628735 -0.89733338
0.011956881 0.13608482 -0.89600009
0.017238423 0.13690589 -0.89685714
0.02300626 0.13748375 -0.89725012
0.028023971 0.13789941 -0.89733344
0.03260234 0.13833004 -0.89714295
0.037639562 0.13865303 -0.89700001
0.042452566 0.13865304 -0.89700007
0.047247406 0.13860121 -0.89666671
0.052020505 0.13849756 -0.89600003
0.056828141 0.13930181 -0.89600009
0.06243705 0.13930181 -0.89600003
0.068045959 0.13930181 -0.89600009
0.072853595 0.13930181 -0.89600009
0.077661231 0.13930181 -0.89600009
0.08246886 0.13930181 -0.89600009
0.087597005 0.1386584 -0.89600003
0.092084132 0.13849756 -0.89600003
0.096891776 0.13930181 -0.89600009
0.033666216 0.14122483 -0.89800006
0.037681527 0.14122483 -0.89800012
0.048924379 0.14122483 -0.89800006
0.052136622 0.14122483 -0.89800012
0.056954991 0.14122483 -0.89800012
0.062576421 0.14122483 -0.89800006
0.068599373 0.14162785 -0.89800006
0.072961412 0.14192602 -0.89733338
0.07777679 0.14273207 -0.89733338
0.082591571 0.14273207 -0.89733338
0.087406375 0.14273207 -0.89733338
0.092221163 0.14273207 -0.89733338
0.097035952 0.14273208 -0.89733344
0.10224755 0.14293663 -0.89659995
0.10810959 0.14332303 -0.89600003
0.11291723 0.14332303 -0.89600003
0.11785625 0.14348388 -0.89700001
0.12276101 0.14358994 -0.89766681
0.12762436 0.14364296 -0.89800012
0.13229525 0.14348388 -0.89700001
0.13710825 0.14348391 -0.89700007
0.14208354 0.14380558 -0.89600003
0.14817321 0.14412728 -0.89600009
0.10192641 0.14606109 -0.89800012
0.10594171 0.14606108 -0.89800006
0.13404885 0.14606108 -0.89800006
0.13726109 0.14606109 -0.89800012
0.14207947 0.14606109 -0.89800012
0.14689784 0.14670591 -0.89800006
-0.047073133 0.12572834 -0.89100003
-0.042363521 0.1278106 -0.8925001
-0.037909918 0.12852749 -0.89100003
-0.040835749 0.13096637 -0.89400005
-0.037637815 0.13096637 -0.89400005
-0.032454997 0.13134463 -0.89220011
-0.027996955 0.13154909 -0.8925001
-0.023520093 0.13134463 -0.89220011
-0.0176211 0.13194895 -0.89250004
-0.012013878 0.13212639 -0.89100003
-0.0072330711 0.13212639 -0.89100003
-0.0024522645 0.13212639 -0.89100003
0.0023285425 0.13212639 -0.89100003
0.0075150761 0.13263884 -0.89175004
0.011910174 0.13315128 -0.8925001
0.017810011 0.1326264 -0.89219993
0.02287527 0.13249518 -0.89212501
0.027873024 0.13315128 -0.8925001
0.032642692 0.13307624 -0.89200008
0.037387792 0.13372591 -0.89100003
0.040574998 0.13372591 -0.89100003
0.078821458 0.13372591 -0.89100003
0.082805462 0.13372591 -0.89100003
0.087081693 0.13417616 -0.89400005
0.092519894 0.13395104 -0.89250004
0.097147882 0.13372591 -0.89100003
0.033516258 0.13578106 -0.89400005
0.037513681 0.13578108 -0.89400005
0.042310581 0.13578108 -0.89400005
0.046949409 0.13532542 -0.89100003
0.051730216 0.13532542 -0.89100003
0.057500776 0.13738596 -0.89400005
0.063097164 0.13738596 -0.89400005
0.068121664 0.13656175 -0.89280003
0.072569013 0.1363557 -0.8925001
0.077357866 0.1363557 -0.8925001
0.082146727 0.1363557 -0.8925001
0.086681947 0.13618228 -0.89400005
0.092519894 0.13555324 -0.89250004
0.098032698 0.13692778 -0.89362502
0.10230869 0.13761358 -0.89200008
0.1075063 0.13852444 -0.89100003
0.1122871 0.13852444 -0.89100003
0.11706792 0.13852444 -0.89100003
0.12184872 0.13852444 -0.89100003
0.13858154 0.13852444 -0.89100003
0.10387085 0.14059576 -0.89400005
0.10786828 0.14059576 -0.89400005
0.11266517 0.14059576 -0.89400005
0.11746208 0.14059576 -0.89400005
0.12225898 0.14059576 -0.89400005
0.12705588 0.14059576 -0.89400005
0.13185279 0.14059576 -0.89400005
0.13733186 0.14047781 -0.89325005
0.14280555 0.14116232 -0.8925001
0.14759441 0.14116231 -0.8925001
-0.047655024 0.11720223 -0.88700002
-0.047099736 0.12228276 -0.88775003
-0.042149924 0.12291472 -0.88800001
-0.037677955 0.12299036 -0.88740009
-0.032583773 0.12357157 -0.88700002
-0.028617648 0.12357157 -0.88700002
-0.041402377 0.12544613 -0.88900006
-0.037109312 0.12608451 -0.88900006
-0.032649472 0.12701069 -0.88877773
-0.027852705 0.12688446 -0.88788891
-0.023082415 0.12685271 -0.8876667
-0.017525677 0.12685269 -0.8876667
-0.011971532 0.12688446 -0.88788891
-0.0072082132 0.12688446 -0.88788891
-0.0026416257 0.12706381 -0.88775003
0.0020936932 0.12733524 -0.88785726
0.0070794965 0.12760064 -0.88733339
0.011850122 0.12769711 -0.88800013
0.017730875 0.12724765 -0.88819999
0.0229764 0.12694797 -0.88833332
0.0277429 0.12694798 -0.88833338
0.032492738 0.12688446 -0.88788891
0.036843419 0.12802283 -0.88750005
0.042296577 0.12898551 -0.88700002
0.048060678 0.12941013 -0.88700002
0.053084426 0.12914473 -0.88700002
0.057843771 0.12914473 -0.88700002
0.062603109 0.12914473 -0.88700002
0.066859558 0.12733525 -0.88733339
0.070694402 0.12863797 -0.88900006
0.10742027 0.12954281 -0.88700002
0.11098978 0.1299409 -0.88700002
-0.016756987 0.13023391 -0.88900012
-0.011986911 0.13023391 -0.88900012
-0.0072168354 0.13023391 -0.88900012
-0.00244676 0.13023391 -0.88900012
0.0023233155 0.13023391 -0.88900012
0.0070933914 0.13023391 -0.88900012
0.011863466 0.13023391 -0.88900012
0.01583853 0.1302339 -0.88900006
0.024583668 0.1302339 -0.88900006
0.027763721 0.13023391 -0.88900012
0.032533795 0.13023391 -0.88900012
0.037303869 0.13103186 -0.88900006
0.042073946 0.1320958 -0.88900006
0.04684402 0.13262777 -0.88900006
0.052409105 0.13262777 -0.889
0.057974201 0.13262779 -0.88900006
0.062744275 0.13262777 -0.88900006
0.067514345 0.13182981 -0.88900006
0.072284423 0.13182983 -0.88900006
0.076100491 0.13214901 -0.88900006
0.08023455 0.13342574 -0.88900006
0.099314854 0.13342574 -0.88900006
0.10277532 0.13287757 -0.88800001
0.10702366 0.13312557 -0.88700002
0.1121003 0.13328479 -0.88700002
0.1181288 0.13471791 -0.88700002
0.1213017 0.1347179 -0.88700002
0.054794148 0.13502167 -0.88900006
0.057974201 0.13502167 -0.88900012
0.062744275 0.13502167 -0.88900012
0.065924324 0.13502167 -0.88900006
0.10355493 0.13555364 -0.88900012
0.10726498 0.13661759 -0.88900012
0.11203506 0.13661759 -0.88900012
0.11760014 0.13661759 -0.88900006
0.12356274 0.13701656 -0.88900006
0.12783878 0.1373131 -0.88833332
0.13255611 0.13726187 -0.88800001
