# .PCD v0.7 - Point Cloud Data file format
VERSION 0.7
FIELDS x y z
SIZE 4 4 4
TYPE F F F
COUNT 1 1 1
WIDTH 1302
HEIGHT 1
VIEWPOINT 0 0 0 1 0 0 0
POINTS 1302
DATA ascii
-0.032628097 -0.012962674 -0.75260001
-0.027249761 -0.013266197 -0.75228578
-0.022619408 -0.013448901 -0.75171441
-0.017471971 -0.012839853 -0.75244451
-0.01199383 -0.011475298 -0.75327277
-0.0076536476 -0.011736793 -0.75314289
-0.0027458433 -0.012024433 -0.75300008
0.0026412837 -0.012024434 -0.75299996
0.0073550195 -0.012024435 -0.75300002
0.011880001 -0.011466098 -0.75272733
0.017641399 -0.011472559 -0.75309098
0.022817284 -0.011334787 -0.75216669
0.02752015 -0.011331976 -0.75200003
0.031962372 -0.010762881 -0.75257152
0.037507579 -0.011304225 -0.75000006
0.042873241 -0.011304225 -0.75000006
0.047568202 -0.011304225 -0.75000012
0.051592451 -0.011304225 -0.75000012
0.024896201 -0.0086573679 -0.75400001
0.026244771 -0.0086573679 -0.75400001
0.032699693 -0.0089227725 -0.75360006
0.037657611 -0.0093208766 -0.75300008
0.042572036 -0.0090327226 -0.75314295
0.04710592 -0.0086485166 -0.75333327
0.052459549 -0.008642179 -0.75283337
0.057782497 -0.0086320098 -0.75200003
0.062627353 -0.0081423242 -0.75218183
0.067197457 -0.007282027 -0.75200003
0.072577424 -0.0072820275 -0.75200009
0.077478267 -0.0069475519 -0.75225002
0.082310975 -0.0065137176 -0.75228578
0.087372348 -0.0066076335 -0.75200009
0.092499599 -0.0067070858 -0.75228578
0.097425155 -0.0066056605 -0.75174999
0.10186865 -0.0061942465 -0.75080007
0.10524909 -0.0059186546 -0.75000006
0.1139683 -0.0059186546 -0.75000006
0.11665112 -0.0059186546 -0.75000006
0.068050459 -0.0045966478 -0.75400007
0.072770447 -0.0045966478 -0.75400001
0.077490442 -0.0045966478 -0.75400007
0.082210436 -0.0045966478 -0.75400001
0.087604716 -0.0045966478 -0.75400001
0.093673281 -0.0045966478 -0.75400001
0.097044706 -0.0045966478 -0.75400001
0.10303463 -0.0038196936 -0.7534287
0.10780081 -0.0028475283 -0.75242859
0.11268115 -0.00275023 -0.75228578
0.11742843 -0.0023679507 -0.75314289
0.1222724 -0.0026928477 -0.75240004
0.12763156 -0.0033582381 -0.75254548
0.1325881 -0.0032367501 -0.75290918
0.13739282 -0.0024237589 -0.75266671
0.14235163 -0.0022679917 -0.75214297
0.14767739 -0.0020044742 -0.75181818
0.1428961 0.00081764627 -0.75400001
-0.047600988 -0.021796469 -0.74625009
-0.042705864 -0.021266397 -0.74524999
-0.037397917 -0.021280216 -0.74575001
-0.032031082 -0.02059078 -0.74500006
-0.047340851 -0.0188189 -0.74900001
-0.042695731 -0.01811558 -0.74827284
-0.037528142 -0.01799491 -0.74833339
-0.03202324 -0.017447695 -0.74793333
-0.027440896 -0.017290849 -0.74699998
-0.02276472 -0.016620643 -0.7470001
-0.017420519 -0.016620643 -0.74699998
-0.012330594 -0.016336316 -0.74620014
-0.0073962426 -0.015945114 -0.74666667
-0.0027207995 -0.015940959 -0.74650007
0.0028442882 -0.016179385 -0.7472223
0.0079644388 -0.016620645 -0.74699998
0.012633492 -0.016611552 -0.74655563
0.017134603 -0.016499171 -0.7470001
0.022630656 -0.01593028 -0.74600011
0.027676055 -0.015831828 -0.74585718
0.032593872 -0.015241114 -0.74500006
0.037257526 -0.015241114 -0.74500006
-0.015457719 -0.013978347 -0.74900001
-0.01210865 -0.013978347 -0.74900001
-0.0074199541 -0.013978347 -0.74900001
-0.0027312571 -0.013978347 -0.74900001
0.0026272531 -0.013978347 -0.74900001
0.0079857623 -0.013978347 -0.74900001
0.012674458 -0.013978347 -0.74900001
0.017363155 -0.013978347 -0.74900001
0.022721665 -0.013978347 -0.74900001
0.027360376 -0.013953465 -0.74766672
0.032056201 -0.013287386 -0.74800003
0.037407558 -0.013287386 -0.74800003
0.042758919 -0.013287386 -0.74800003
0.047758121 -0.013364768 -0.74700004
0.05258996 -0.012941905 -0.74750006
0.057739906 -0.012177256 -0.7485556
0.062742509 -0.012597623 -0.74699998
0.067279905 -0.012224459 -0.74757153
0.072191373 -0.011944585 -0.74800009
0.077386335 -0.01192108 -0.74650007
0.08267244 -0.011912646 -0.74600011
0.08763995 -0.01199741 -0.74528581
0.092315428 -0.01181927 -0.74614298
0.097349323 -0.011912646 -0.74600005
0.10238041 -0.011814963 -0.7458573
0.10787861 -0.011228864 -0.74500006
0.11254227 -0.011228865 -0.74500006
0.11720593 -0.011228864 -0.74500006
0.12186958 -0.011228865 -0.74500006
0.064919934 -0.0099445553 -0.74900001
0.067599192 -0.0099445563 -0.74900001
0.072287887 -0.0099445553 -0.74900001
0.077903077 -0.0093645062 -0.74871433
0.082591198 -0.0093531264 -0.74785721
0.087210499 -0.0091648353 -0.74814296
0.09235213 -0.0092689376 -0.74875003
0.097740814 -0.0092722569 -0.74900001
0.10298812 -0.0088586155 -0.74820012
0.10744908 -0.0078645172 -0.74807698
0.11211372 -0.0082016401 -0.74785721
0.1178468 -0.008201641 -0.74785721
0.1227187 -0.0081055975 -0.74785715
0.12749797 -0.007867625 -0.74779999
0.13246839 -0.007776455 -0.74766666
0.1376534 -0.0079086423 -0.74749994
0.14277984 -0.0074418532 -0.74715382
0.14773002 -0.0073624807 -0.7464
0.14328814 -0.0045661656 -0.74900001
0.14730702 -0.0045661656 -0.74900001
-0.047811721 -0.027823087 -0.74175006
-0.042617347 -0.02767767 -0.74140006
-0.037160382 -0.026466288 -0.74100012
-0.032521766 -0.025801171 -0.74100006
-0.029871125 -0.025801169 -0.74100006
-0.04695829 -0.024236102 -0.74400002
-0.042577602 -0.023869621 -0.74300003
-0.037210528 -0.023837944 -0.74200004
-0.032580283 -0.023180543 -0.74233335
-0.02778329 -0.022633515 -0.74186671
-0.022589488 -0.02248249 -0.7412501
-0.017289115 -0.022486169 -0.74137503
-0.01244582 -0.022335125 -0.74146163
-0.0078734718 -0.022616096 -0.74126673
-0.0027033004 -0.021819673 -0.74133343
0.0026008766 -0.021822128 -0.74141681
0.007906463 -0.021827035 -0.74158347
0.012544726 -0.021819675 -0.74133343
0.017005406 -0.021699583 -0.7413637
0.022046721 -0.020932851 -0.74133343
0.028064253 -0.021050328 -0.74100012
0.032418873 -0.021145344 -0.74100012
0.036394831 -0.020480227 -0.74100006
-0.022673294 -0.019227521 -0.74400002
-0.017350556 -0.019227521 -0.74400002
-0.011574671 -0.018765084 -0.74333334
-0.0073605143 -0.018533867 -0.74300003
-0.0027093778 -0.018533867 -0.74300003
0.0023243323 -0.018647728 -0.74371427
0.0079324534 -0.019227521 -0.74400002
0.01258985 -0.019227523 -0.74400008
0.017636105 -0.01895006 -0.74360001
0.022539649 -0.018533867 -0.74300003
0.028072251 -0.01830879 -0.74288893
0.032491792 -0.017858637 -0.74266672
0.037127666 -0.017852776 -0.74241674
0.042426482 -0.017180052 -0.74218762
0.047927666 -0.016895197 -0.74221438
0.052852195 -0.01729472 -0.74133337
0.057444014 -0.017014014 -0.74161541
0.062301096 -0.017170427 -0.74175
0.067600593 -0.016503757 -0.74166673
0.072881982 -0.016498197 -0.74141681
0.07747972 -0.0158244 -0.74100012
0.082160234 -0.015832072 -0.74137509
0.087448657 -0.015829515 -0.7412501
0.092720889 -0.0158244 -0.74100012
0.097425193 -0.01583463 -0.74150008
0.10206694 -0.01583463 -0.74150008
0.10693022 -0.015429421 -0.74120009
0.11260067 -0.015159282 -0.74100006
0.11790195 -0.015159282 -0.74100006
0.12254056 -0.015159282 -0.74100006
0.12717918 -0.015159282 -0.74100006
0.13248046 -0.015159282 -0.74100006
0.13579376 -0.015159282 -0.74100006
0.056502447 -0.013885034 -0.74400008
0.068478607 -0.013885034 -0.74400008
0.073085509 -0.013875702 -0.74349999
0.077584282 -0.013847709 -0.74200004
0.082229152 -0.013847709 -0.74200004
0.087537587 -0.013847709 -0.74200004
0.092846014 -0.013847709 -0.74200004
0.097490899 -0.013847709 -0.74200004
0.10259004 -0.01358805 -0.74240005
0.10758901 -0.013198561 -0.74300003
0.11257565 -0.013288631 -0.74271435
0.11747527 -0.013189229 -0.74250007
0.12264251 -0.012858107 -0.742625
0.12740804 -0.012519508 -0.74233341
0.1325753 -0.012644341 -0.74254549
0.13738759 -0.012400457 -0.74245465
0.14234167 -0.01176313 -0.74257153
0.14723229 -0.011847555 -0.74187505
0.14299695 -0.0098781697 -0.74400008
0.14765434 -0.0098781697 -0.74400002
-0.047505103 -0.03293645 -0.73700005
-0.042420879 -0.032653391 -0.73700011
-0.037576631 -0.031579744 -0.73616672
-0.032960508 -0.030912112 -0.73600006
-0.027695002 -0.030912112 -0.73600006
-0.022429496 -0.030912112 -0.73600006
-0.017163992 -0.030912112 -0.73600006
-0.040364441 -0.029711468 -0.73900002
-0.037329245 -0.0289419 -0.73871434
-0.032623008 -0.028450219 -0.73729998
-0.027627872 -0.027804198 -0.73773342
-0.022490446 -0.027682194 -0.73800009
-0.017209342 -0.027679678 -0.73793763
-0.012700099 -0.027477413 -0.73736364
-0.007963758 -0.026995357 -0.73733342
-0.0029062752 -0.026531124 -0.73666668
0.0028463313 -0.026698008 -0.73640007
0.0078514228 -0.026698006 -0.73640007
0.012464074 -0.026968075 -0.73655558
0.017069072 -0.026960088 -0.73633349
0.022327296 -0.026287705 -0.73600006
0.027592801 -0.026287705 -0.73600006
0.032419518 -0.026067493 -0.73600006
0.036149248 -0.025627073 -0.73600006
0.047338448 -0.025627073 -0.73600006
0.051945768 -0.025627073 -0.73600006
-0.0026947916 -0.024404885 -0.73900002
0.0025921762 -0.024404885 -0.73900002
0.0078791436 -0.024404885 -0.73900002
0.012505241 -0.024404887 -0.73900002
0.017517515 -0.024126347 -0.73860002
0.022645535 -0.023304658 -0.7378
0.02765774 -0.023534901 -0.73775005
0.033122845 -0.023456004 -0.73700005
0.037658352 -0.022755444 -0.73720008
0.042130105 -0.02235201 -0.73700005
0.047411144 -0.022355692 -0.7371251
0.052684024 -0.022355692 -0.7371251
0.057598662 -0.022014335 -0.73675001
0.062296953 -0.021558804 -0.73700011
0.066905208 -0.021235159 -0.73644447
0.072398752 -0.021016482 -0.73650002
0.077627949 -0.02100612 -0.73612505
0.082895018 -0.021006119 -0.73612505
0.087667108 -0.02150159 -0.73612505
0.092141837 -0.021013027 -0.73637503
0.096921965 -0.020782454 -0.73600006
0.10262626 -0.020342033 -0.73600006
0.10789175 -0.020342033 -0.73600006
0.11249907 -0.020342033 -0.73600006
0.11710639 -0.020342033 -0.73600006
0.1223719 -0.020342033 -0.73600006
0.1276374 -0.020342033 -0.73600006
0.13224471 -0.020342033 -0.73600006
0.046209659 -0.019098302 -0.73900002
0.067357533 -0.019098302 -0.73900002
0.072644502 -0.019098302 -0.73900002
0.077826008 -0.018409139 -0.73799998
0.082557574 -0.018434981 -0.73900002
0.087123781 -0.01842206 -0.7385
0.092345499 -0.018409139 -0.73800004
0.097625315 -0.018409139 -0.73800004
0.10283429 -0.018396664 -0.73750001
0.10767168 -0.017858882 -0.73720002
0.11224142 -0.017612416 -0.73745459
0.11731856 -0.017729782 -0.73733342
0.12259358 -0.017729782 -0.73733342
0.12766212 -0.017846579 -0.73718184
0.13267271 -0.017725773 -0.73716676
0.13730343 -0.016635871 -0.73681825
0.14218192 -0.016385075 -0.73633349
0.1475261 -0.016591242 -0.73646158
0.13939247 -0.013791721 -0.73900002
0.14269683 -0.013791721 -0.73900002
0.14788233 -0.013782389 -0.7385
-0.047534544 -0.037121262 -0.73340005
-0.042039383 -0.036738507 -0.73362505
-0.037347235 -0.036640178 -0.73166674
-0.032736592 -0.035951246 -0.73100001
-0.027506856 -0.035951246 -0.73100001
-0.040747736 -0.034781124 -0.73400003
-0.037457526 -0.034114391 -0.73383331
-0.032830115 -0.033420462 -0.73308343
-0.027607201 -0.033447661 -0.73366666
-0.022358388 -0.033447661 -0.73366666
-0.017363319 -0.033167288 -0.73330015
-0.012499806 -0.032085594 -0.73266667
-0.0079126786 -0.032082096 -0.7325834
-0.0026700231 -0.032064296 -0.73216671
0.0023493269 -0.031614304 -0.73188889
0.0077991802 -0.031379253 -0.73150003
0.012757923 -0.031487994 -0.73185718
0.01725254 -0.031312522 -0.73214287
0.022197699 -0.031389754 -0.73175001
0.027424993 -0.031379256 -0.73150003
0.032259639 -0.030981367 -0.73140001
0.036557384 -0.03070211 -0.73100001
-0.011209754 -0.029510444 -0.73400003
-0.0079277558 -0.029510444 -0.73400003
-0.002395245 -0.028945731 -0.73400009
0.0021370379 -0.029071219 -0.73400009
0.0078258347 -0.029071223 -0.73400009
0.012420632 -0.029510444 -0.73400009
0.017015429 -0.029510444 -0.73400003
0.022258595 -0.028841555 -0.73374999
0.027499076 -0.028831506 -0.7335
0.033013728 -0.028440226 -0.73360008
0.03811286 -0.027636582 -0.73326665
0.042443451 -0.027111391 -0.73330003
0.047177654 -0.027514733 -0.73350012
0.052631564 -0.02728872 -0.73333341
0.05764623 -0.026843097 -0.73316669
0.062863022 -0.026830591 -0.73283339
0.067654006 -0.026808118 -0.73219997
0.072144173 -0.026317127 -0.73224998
0.077193283 -0.026143938 -0.73199999
0.082755916 -0.025729362 -0.73140001
0.087667055 -0.026143938 -0.73199999
0.092777029 -0.025452977 -0.73100001
0.098006755 -0.025452977 -0.73100001
0.10258278 -0.025452977 -0.73100007
0.058368605 -0.024239764 -0.73400009
0.062963404 -0.024239764 -0.73400003
0.067558199 -0.023580931 -0.73400009
0.072153002 -0.023580931 -0.73400009
0.077390671 -0.023576802 -0.73387504
0.082613498 -0.023568546 -0.73362505
0.087906584 -0.023800543 -0.73400009
0.092857964 -0.023670334 -0.73385727
0.097562321 -0.023057496 -0.73366672
0.1023009 -0.022911087 -0.73366684
0.10750026 -0.022900078 -0.73333347
0.11275752 -0.022638746 -0.73340011
0.11746889 -0.022564679 -0.73312497
0.12262485 -0.022751234 -0.73280007
0.1272639 -0.02276393 -0.73281831
0.13208298 -0.022148216 -0.73266667
0.13748689 -0.020898433 -0.73237503
0.14265439 -0.020887621 -0.73199999
0.14780657 -0.021563385 -0.73266667
0.13844936 -0.018969085 -0.73400009
0.14238775 -0.018969085 -0.73400009
0.14676374 -0.018969085 -0.73400009
-0.047510669 -0.041626595 -0.72700012
-0.043374013 -0.04139059 -0.72666669
-0.03770664 -0.040918577 -0.72600001
-0.046897914 -0.039287511 -0.72960007
-0.042789657 -0.039209533 -0.72885728
-0.037785437 -0.039043672 -0.72750008
-0.032615036 -0.038056105 -0.72828573
-0.027393971 -0.038415115 -0.72800004
-0.022397319 -0.03752565 -0.72885716
-0.017164439 -0.037008703 -0.72836369
-0.012420189 -0.036457159 -0.7280001
-0.007865875 -0.036469448 -0.72825009
-0.0026583266 -0.036506332 -0.72900009
0.0025537978 -0.036469448 -0.72825009
0.0074767563 -0.036334679 -0.72742867
0.012944752 -0.035729934 -0.72650003
0.017479222 -0.035705343 -0.72600001
0.022023939 -0.035705343 -0.72600001
0.02725539 -0.035754524 -0.72700006
0.032411866 -0.035705343 -0.72600001
-0.015718423 -0.034591578 -0.73000002
-0.01245431 -0.034591578 -0.73000002
-0.0078845527 -0.034591578 -0.73000002
-0.0026619728 -0.034591578 -0.73000002
0.0028403881 -0.034029942 -0.73000008
0.0077745197 -0.033900794 -0.72925001
0.01298795 -0.033888951 -0.72900009
0.017551448 -0.033888951 -0.72900009
0.022114946 -0.033888947 -0.72900003
0.027359158 -0.03392449 -0.72975004
0.032736018 -0.033365764 -0.72927278
0.037799489 -0.032719564 -0.7287693
0.042917699 -0.031880617 -0.72799993
0.047695141 -0.031985626 -0.7274
0.052170251 -0.031739332 -0.72745466
0.057226896 -0.031873614 -0.72783339
0.062589474 -0.031408049 -0.72711116
0.06764105 -0.031873614 -0.72783339
0.072814763 -0.031859614 -0.72750008
0.077495873 -0.031707801 -0.72733337
0.082161456 -0.031098673 -0.72714299
0.086772121 -0.031086672 -0.72685724
0.092142433 -0.030492112 -0.72600001
0.097336397 -0.030492112 -0.72600001
0.10188112 -0.030492112 -0.72600001
0.043688424 -0.029349623 -0.73000002
0.047605358 -0.029349623 -0.73000002
0.052175112 -0.029349623 -0.73000002
0.057397693 -0.029349623 -0.73000002
0.062620275 -0.029349623 -0.73000002
0.068234555 -0.029087527 -0.73000002
0.072673745 -0.028825426 -0.73000002
0.076982379 -0.028694378 -0.73000002
0.081945017 -0.028129032 -0.72927284
0.087307766 -0.028654175 -0.72900009
0.092565499 -0.028012332 -0.72933334
0.097783312 -0.028012332 -0.7293334
0.1028821 -0.027980318 -0.72850007
0.10774342 -0.026899995 -0.72759992
0.11265942 -0.027429013 -0.72723085
0.11728688 -0.02718067 -0.72813338
0.1221936 -0.026853994 -0.72799999
0.12755212 -0.026653022 -0.72799993
0.13263881 -0.026629811 -0.72733343
0.13787344 -0.026635613 -0.72750008
0.14211665 -0.026239656 -0.72685724
0.14704326 -0.026385639 -0.72780007
0.11223479 -0.024107667 -0.73000002
0.11811019 -0.024107669 -0.73000002
0.12072148 -0.024107667 -0.73000002
0.13279869 -0.023780044 -0.73000002
0.13736202 -0.023517888 -0.72977781
0.14243306 -0.023339948 -0.72942865
0.1470955 -0.023845568 -0.73000002
-0.04782958 -0.045877639 -0.72200006
-0.04266423 -0.045877639 -0.72200006
-0.037511874 -0.04654159 -0.7222501
-0.032333542 -0.045877639 -0.72200006
-0.027168196 -0.045877639 -0.72200006
-0.04796207 -0.044054247 -0.72399998
-0.042511977 -0.043652162 -0.72380006
-0.037602767 -0.043404087 -0.72399998
-0.032423105 -0.042753633 -0.7240001
-0.02722027 -0.042716391 -0.72337496
-0.022033323 -0.042694137 -0.72300005
-0.017618503 -0.042502057 -0.72272736
-0.012971196 -0.042012893 -0.72241676
-0.0078035467 -0.041369375 -0.72250009
-0.002634624 -0.041369375 -0.72250009
0.0025335257 -0.04136233 -0.72237509
0.0076978914 -0.04069313 -0.72200006
0.010926233 -0.04069313 -0.72200006
-0.020797571 -0.039560702 -0.72500002
-0.017555816 -0.039560702 -0.72500008
-0.012999402 -0.038855378 -0.72400004
-0.0078197485 -0.038855378 -0.72399998
-0.0026400937 -0.038855378 -0.72399998
0.0025395607 -0.038855378 -0.72399998
0.0079260459 -0.038597215 -0.72322226
0.012882315 -0.038156249 -0.72308344
0.01787219 -0.038260415 -0.7228182
0.022326399 -0.038032435 -0.72320002
0.027105426 -0.038151849 -0.72300005
0.032262456 -0.038134858 -0.72266674
0.037450433 -0.037502438 -0.72299993
0.042501483 -0.03737966 -0.72313339
0.047806006 -0.036862724 -0.7231667
0.052967936 -0.036854528 -0.72300005
0.05772033 -0.036964409 -0.7226001
0.061928704 -0.036411557 -0.72277784
0.067145839 -0.036181275 -0.72250009
0.072314762 -0.036181275 -0.72250009
0.07745643 -0.036168981 -0.7222501
0.082384072 -0.036092211 -0.72257155
0.087760761 -0.035508621 -0.72200006
0.0929261 -0.035508621 -0.72200006
0.097445779 -0.035508625 -0.72200006
0.10196546 -0.035508621 -0.72200006
0.1071308 -0.035508621 -0.72200006
0.11100481 -0.035508621 -0.72200006
0.039499082 -0.034354649 -0.72500002
0.042740837 -0.034354649 -0.72500002
0.047927648 -0.034354649 -0.72500002
0.052466106 -0.034354649 -0.72500008
0.057004564 -0.034354649 -0.72500002
0.061865509 -0.033769783 -0.72442859
0.067378178 -0.034354649 -0.72500002
0.072464898 -0.034307264 -0.72399998
0.078075886 -0.033873431 -0.7240001
0.082824208 -0.033656511 -0.72400004
0.088034593 -0.033424597 -0.72366667
0.092697434 -0.032987211 -0.7235834
0.097388886 -0.032852989 -0.72349995
0.10227747 -0.032767639 -0.72315389
0.10728863 -0.0323136 -0.72306252
0.11243157 -0.032305952 -0.722875
0.11758396 -0.032300256 -0.72275007
0.12271178 -0.032289755 -0.72250009
0.12775746 -0.032161575 -0.72253335
0.1326801 -0.03177559 -0.7226001
0.13714547 -0.03153361 -0.72272736
0.14189233 -0.031517681 -0.72236377
0.14726415 -0.030993173 -0.72250009
0.10757595 -0.029148597 -0.72500002
0.12248802 -0.029148599 -0.72500008
0.12702648 -0.029148597 -0.72500002
0.13221329 -0.029148597 -0.72500002
0.13740009 -0.029148597 -0.72500002
0.14264002 -0.02854486 -0.72385716
0.1479342 -0.028661154 -0.72366667
-0.047432099 -0.051280487 -0.71600002
-0.042309675 -0.051280487 -0.71600002
-0.03718726 -0.051280491 -0.71600002
-0.03206484 -0.051280484 -0.71600002
-0.026942421 -0.050637811 -0.71600002
-0.022460302 -0.050637811 -0.71600002
-0.047608759 -0.048244324 -0.71866673
-0.042467263 -0.048244324 -0.71866673
-0.037310947 -0.048870113 -0.71837497
-0.032184258 -0.048244324 -0.71866667
-0.027011853 -0.048188981 -0.7178334
-0.022525951 -0.047560092 -0.71808332
-0.018009569 -0.0475052 -0.71724999
-0.013022238 -0.04704386 -0.71699995
-0.0079515772 -0.046381526 -0.71644449
-0.0026127447 -0.046170831 -0.71649998
0.0025132531 -0.046170831 -0.71650004
0.0078124246 -0.046687994 -0.71636367
0.012550825 -0.046381529 -0.71644449
0.017884558 -0.046154942 -0.71625006
0.023001183 -0.045496386 -0.71600002
0.026202695 -0.045496386 -0.71600002
-0.016146982 -0.044458017 -0.72000003
-0.012927583 -0.044458017 -0.72000003
-0.0077728298 -0.043788593 -0.719625
-0.0026236845 -0.043780874 -0.71950006
0.0025237764 -0.043780874 -0.71950006
0.00767079 -0.043134607 -0.71950018
0.012937377 -0.042583082 -0.7189334
0.01794743 -0.042443376 -0.71875
0.0227891 -0.042582415 -0.71800005
0.027200615 -0.042226475 -0.71821433
0.032054707 -0.042397957 -0.71799999
0.037191436 -0.042397957 -0.71800005
0.042187661 -0.042257585 -0.71779996
0.047426112 -0.041720763 -0.7174167
0.05254028 -0.041706376 -0.71716678
0.057630982 -0.041678187 -0.7166667
0.062731996 -0.041018996 -0.71637505
0.067822367 -0.040997639 -0.71600002
0.07294479 -0.040997639 -0.71600002
0.077683024 -0.040612031 -0.71600002
0.082549326 -0.04035496 -0.71600002
0.087031446 -0.04035496 -0.71600002
0.044377711 -0.039287873 -0.72000003
0.04759711 -0.039287873 -0.72000003
0.052748147 -0.039287873 -0.72000003
0.057899188 -0.039287873 -0.72000003
0.063212179 -0.038664024 -0.71871436
0.067722715 -0.038617767 -0.71785718
0.072733536 -0.03843214 -0.71744448
0.077839136 -0.038541354 -0.71642864
0.082504988 -0.038157463 -0.71700001
0.087234035 -0.037869811 -0.71766675
0.092357427 -0.037865411 -0.71758336
0.097457439 -0.03785222 -0.71733344
0.1025894 -0.03785222 -0.71733332
0.10759576 -0.037809737 -0.71650004
0.11283235 -0.036815699 -0.71720004
0.11770763 -0.036457043 -0.71715385
0.12300281 -0.036532275 -0.7166667
0.12773338 -0.036657479 -0.71660006
0.13216119 -0.036418464 -0.71672732
0.13710259 -0.036532275 -0.7166667
0.14206718 -0.036418457 -0.71672732
0.14732268 -0.035880808 -0.71650004
0.12919015 -0.034070335 -0.71900004
0.13240507 -0.034070335 -0.71900004
0.13754895 -0.034070335 -0.71900004
0.14318825 -0.033655286 -0.71933335
0.14770721 -0.033395126 -0.71837497
-0.047100872 -0.0560279 -0.71100003
-0.042014223 -0.055389713 -0.71100003
-0.036927573 -0.055389713 -0.71100003
-0.047283493 -0.053681754 -0.71375006
-0.042161956 -0.053662725 -0.71350008
-0.037038948 -0.053634405 -0.71312505
-0.032164607 -0.053468902 -0.712143
-0.027930029 -0.052796148 -0.71262509
-0.022983983 -0.052298475 -0.71237504
-0.017894488 -0.051679637 -0.71266687
-0.012775413 -0.051595937 -0.71150005
-0.0076793381 -0.050922386 -0.71100003
-0.0025926887 -0.050922386 -0.71100003
0.002495921 -0.050975427 -0.71175003
0.0075892783 -0.050975427 -0.71175009
0.012399087 -0.050851423 -0.71128577
0.01775391 -0.050284192 -0.71100003
0.022840559 -0.050284192 -0.71100003
0.026019717 -0.050284192 -0.71100003
-0.01218134 -0.049214594 -0.71400011
-0.0074319211 -0.048625883 -0.71342868
-0.0026018049 -0.048539251 -0.71350014
0.0025043811 -0.048565097 -0.71387506
0.0072294883 -0.048958242 -0.71400005
0.012986339 -0.048635732 -0.71357149
0.017816335 -0.048539251 -0.71350014
0.022894103 -0.047841527 -0.71266675
0.028114429 -0.04732047 -0.71253347
0.032806795 -0.047368284 -0.71242875
0.037175346 -0.047002699 -0.71242863
0.041818034 -0.046705458 -0.71184623
0.047046222 -0.046497412 -0.7116667
0.052137639 -0.046497412 -0.71166676
0.057229053 -0.046497412 -0.71166676
0.062327098 -0.045864519 -0.71175003
0.067348748 -0.045816865 -0.71100003
0.072053902 -0.04543395 -0.71100003
0.077522039 -0.04517867 -0.71100003
0.081337027 -0.04517867 -0.71100003
0.099776134 -0.04517867 -0.71100003
0.10168363 -0.04517867 -0.71100003
0.044007897 -0.044087533 -0.71400005
0.047200464 -0.044087533 -0.71400005
0.052308578 -0.044087533 -0.71400005
0.057416692 -0.044087533 -0.71400005
0.062481023 -0.043415774 -0.71350014
0.067585558 -0.043415774 -0.71350002
0.072690099 -0.043415774 -0.71350008
0.077933185 -0.042871933 -0.71318197
0.08280234 -0.042724036 -0.71266687
0.088031828 -0.042519435 -0.71253854
0.093000941 -0.041915253 -0.71230781
0.097565748 -0.042098619 -0.71220016
0.102534 -0.042074062 -0.71249998
0.10752156 -0.041766003 -0.7123335
0.11230922 -0.040684581 -0.712143
0.11710805 -0.040767699 -0.71200001
0.12239473 -0.040974166 -0.71188891
0.12723607 -0.041387103 -0.7116667
0.1323275 -0.041387103 -0.7116667
0.13748327 -0.040767699 -0.71200001
0.14242621 -0.040725432 -0.71125001
0.14746347 -0.040711343 -0.71100003
0.1123289 -0.038960468 -0.71400005
0.11743701 -0.038960468 -0.71400005
0.12254512 -0.038960468 -0.71400005
0.12765323 -0.038960468 -0.71400005
0.13276134 -0.038960468 -0.71400005
0.13786946 -0.038960468 -0.71400005
0.14330268 -0.038505934 -0.71350002
0.14769351 -0.03837996 -0.71342868
-0.047491118 -0.060183257 -0.70733333
-0.044306874 -0.060154896 -0.70700002
-0.046985619 -0.058435805 -0.70925009
-0.042024046 -0.058044817 -0.70869237
-0.037743308 -0.05847577 -0.70757139
-0.032851361 -0.05778883 -0.70752639
-0.027879825 -0.057636816 -0.70729995
-0.022823138 -0.057645138 -0.70740002
-0.01775758 -0.05762849 -0.70719999
-0.012690936 -0.057596248 -0.70679998
-0.0076339939 -0.056959499 -0.70675004
-0.00266296 -0.056594022 -0.70557141
0.0024757213 -0.055997103 -0.7058
0.0075258221 -0.056252819 -0.70583338
0.012587535 -0.056305654 -0.70650005
0.017636638 -0.056292675 -0.70633334
0.02266923 -0.056239836 -0.70566666
0.027691538 -0.056187902 -0.70500004
0.030843865 -0.056187902 -0.70500004
-0.026716646 -0.054037225 -0.71000004
-0.022907022 -0.054037225 -0.71000004
-0.017827529 -0.054037225 -0.71000004
-0.012748033 -0.054037225 -0.71000004
-0.0076665082 -0.053380899 -0.70975006
-0.0025853957 -0.053323824 -0.70900005
0.0024869458 -0.053323824 -0.70900005
0.0075655123 -0.053361874 -0.70950001
0.012848616 -0.053136759 -0.70933342
0.017712295 -0.0527119 -0.70933342
0.022762705 -0.052656017 -0.70858347
0.027791917 -0.052788623 -0.70755553
0.032718081 -0.052302606 -0.7076667
0.037912957 -0.051938221 -0.70749998
0.042905893 -0.051856399 -0.706375
0.047825396 -0.051430084 -0.70653844
0.052826177 -0.051324755 -0.70618182
0.05772616 -0.051613636 -0.7063846
0.062602587 -0.051792398 -0.70599997
0.067773461 -0.051793635 -0.70549995
0.07282076 -0.051793631 -0.70549995
0.077255771 -0.05148901 -0.70566666
0.081602477 -0.051167902 -0.70559996
0.086324833 -0.051125463 -0.7050001
0.042491481 -0.048938882 -0.71000004
0.046936039 -0.048938882 -0.71000004
0.052015536 -0.048938882 -0.71000004
0.057095028 -0.048938882 -0.71000004
0.062086951 -0.048232667 -0.70900005
0.067159295 -0.048232667 -0.70900005
0.072432593 -0.04773004 -0.70927286
0.077321701 -0.047607154 -0.70916671
0.082617335 -0.047393624 -0.70853341
0.087319024 -0.047522012 -0.70795006
0.092286102 -0.047471661 -0.70719999
0.097261399 -0.0476126 -0.7073158
0.10255726 -0.047758806 -0.70727783
0.10718694 -0.047068678 -0.70657146
0.11221303 -0.046712168 -0.70525002
0.11721764 -0.046695832 -0.70499998
0.12243479 -0.046761166 -0.70599997
0.12740871 -0.0462512 -0.70791674
0.1322455 -0.046571013 -0.7063334
0.13701427 -0.046316154 -0.70500004
0.14117533 -0.046063028 -0.70500004
0.14748 -0.046063028 -0.70500004
0.091381624 -0.043840542 -0.71000004
0.10900611 -0.044414293 -0.70899999
0.1128234 -0.043782294 -0.70908332
0.11793813 -0.043798178 -0.70933342
0.12220539 -0.043952204 -0.70925003
0.12693809 -0.043840542 -0.71000004
0.13244098 -0.044406347 -0.70887506
0.13740182 -0.043734122 -0.70830774
0.14255175 -0.043693475 -0.70766675
0.14739704 -0.043691326 -0.70763636
-0.04779499 -0.067328751 -0.70038468
-0.042872954 -0.066857181 -0.70009995
-0.037608247 -0.066470787 -0.70000005
-0.032600291 -0.066470787 -0.70000005
-0.028531333 -0.066156633 -0.70000005
-0.047871009 -0.063024797 -0.70362514
-0.042791452 -0.062956266 -0.70287514
-0.037755996 -0.06294518 -0.70275015
-0.032728367 -0.062945187 -0.70275009
-0.027691334 -0.062921897 -0.70250016
-0.022651101 -0.062882431 -0.70206261
-0.017625256 -0.062871225 -0.70193762
-0.012735455 -0.062373247 -0.70123082
-0.0077739954 -0.061692305 -0.70044452
-0.0025525768 -0.061444253 -0.70000005
0.0024564771 -0.062094297 -0.70025009
0.0072942181 -0.061974131 -0.70018178
0.012471284 -0.061444253 -0.70000005
0.017479237 -0.060815938 -0.70000005
0.02248719 -0.060815938 -0.70000005
0.027495144 -0.060815938 -0.70000005
0.030625116 -0.060815938 -0.70000005
-0.0076037329 -0.059899643 -0.70400006
-0.0023573057 -0.059478372 -0.70400012
0.0024680865 -0.05886307 -0.70370001
0.0075006466 -0.059225198 -0.70350003
0.01253364 -0.059225198 -0.70350003
0.017566634 -0.059225194 -0.70350003
0.022599626 -0.059225198 -0.70350003
0.027609035 -0.058544099 -0.70291674
0.032739498 -0.057995614 -0.70240009
0.03761822 -0.057835989 -0.70200008
0.042624854 -0.057815623 -0.7017501
0.047594521 -0.05775439 -0.70100003
0.052591197 -0.057734128 -0.70074999
0.057625074 -0.057754491 -0.70099998
0.062640175 -0.057754502 -0.70100003
0.06765528 -0.057754494 -0.70099998
0.072439834 -0.056890704 -0.70120001
0.077630088 -0.056457568 -0.70050013
0.082626529 -0.056447607 -0.70037508
0.08759059 -0.055789404 -0.70000005
0.092598535 -0.055789404 -0.70000005
0.097606488 -0.055789404 -0.70000005
0.033947971 -0.054844387 -0.70400006
0.037725396 -0.054844387 -0.70400006
0.042761967 -0.054844387 -0.70400006
0.048068356 -0.054302752 -0.70400012
0.052835107 -0.054212477 -0.70400006
0.057451963 -0.05442312 -0.70400012
0.062908247 -0.054844387 -0.70400006
0.067944817 -0.054844387 -0.70400006
0.072981387 -0.054844387 -0.70400006
0.078418754 -0.05441013 -0.70383334
0.08322297 -0.053778984 -0.70330006
0.088127986 -0.053130966 -0.7028572
0.092706688 -0.053040687 -0.70285732
0.097518124 -0.052820686 -0.70282358
0.10259284 -0.052795101 -0.70200008
0.1077261 -0.052675132 -0.70188242
0.11283147 -0.052739818 -0.70125008
0.11770304 -0.052857108 -0.70113349
0.12237465 -0.052314579 -0.70060009
0.12771501 -0.052043676 -0.70033336
0.13272533 -0.052043676 -0.70033336
0.13773566 -0.052043673 -0.7003333
0.1425627 -0.051925037 -0.70027268
0.14776549 -0.051418383 -0.70037496
0.10697824 -0.049789131 -0.70400006
0.11229306 -0.049195997 -0.70355558
0.11724956 -0.049036641 -0.7035715
0.12200125 -0.04912186 -0.70350003
0.12703423 -0.049121857 -0.70350003
0.13211416 -0.049139541 -0.70375007
0.13729849 -0.048614487 -0.70363641
0.14243564 -0.048211727 -0.7031334
0.1474098 -0.04843162 -0.70266676
-0.047649056 -0.07153412 -0.69670004
-0.042372681 -0.071087867 -0.69600004
-0.03780859 -0.070879921 -0.6960001
-0.032988962 -0.070362799 -0.69500005
-0.046863884 -0.069413476 -0.69800007
-0.042078309 -0.068995804 -0.69800007
-0.037487816 -0.068762094 -0.69774997
-0.032483868 -0.068737231 -0.69749999
-0.02735346 -0.067695908 -0.69710004
-0.022701943 -0.06641455 -0.69722223
-0.017495504 -0.066161044 -0.69675004
-0.012499243 -0.066101812 -0.69612503
-0.0075281286 -0.065560281 -0.69700003
-0.0024497227 -0.066014372 -0.69614291
0.0026495061 -0.066308841 -0.6961112
0.0071715373 -0.066464715 -0.69600004
0.012029596 -0.065734565 -0.69620007
0.01611134 -0.065372169 -0.69500005
-0.011908367 -0.064401314 -0.69800007
-0.0072714128 -0.063864291 -0.69800007
-0.0025452836 -0.063774779 -0.69800001
0.0024483611 -0.064401306 -0.69800001
0.0078165298 -0.064150691 -0.69800001
0.012433088 -0.063763246 -0.69787502
0.017240735 -0.062967733 -0.69727278
0.022392822 -0.063064136 -0.69708335
0.027364215 -0.063025847 -0.69666672
0.032298062 -0.062251344 -0.6966154
0.037190262 -0.062245049 -0.69633335
0.042452171 -0.061955906 -0.69653857
0.047300637 -0.061775189 -0.69666672
0.052234709 -0.061092246 -0.6960001
0.057214044 -0.061092243 -0.69600004
0.062312286 -0.061348855 -0.69655561
0.06695208 -0.061493319 -0.69630003
0.071634047 -0.060797423 -0.69500011
0.077020571 -0.060381539 -0.69500005
0.081992753 -0.060381539 -0.69500005
0.085721888 -0.060381539 -0.69500005
0.07275781 -0.058957275 -0.69783342
0.07729762 -0.058720075 -0.69749999
0.082287699 -0.058720075 -0.69749999
0.087298617 -0.05810773 -0.69766665
0.09228988 -0.05810773 -0.69766665
0.097175896 -0.058044367 -0.69691676
0.10213757 -0.057172786 -0.69646674
0.10716116 -0.056549866 -0.69700003
0.1122281 -0.056215778 -0.69749999
0.11751679 -0.056262758 -0.69722223
0.12261031 -0.056114361 -0.69625002
0.12754628 -0.056094438 -0.6960001
0.13272679 -0.0566261 -0.69640011
0.13724916 -0.05639286 -0.69660002
0.14248429 -0.056094438 -0.6960001
0.14746362 -0.056094438 -0.69600004
0.12354425 -0.054376964 -0.69800001
0.1272895 -0.054376964 -0.69800001
0.13228312 -0.054376964 -0.69800001
0.13727677 -0.054376964 -0.69800001
0.14264494 -0.05412636 -0.69800001
0.14726406 -0.05375044 -0.69800001
-0.047052205 -0.076222867 -0.69158334
-0.042088579 -0.076195151 -0.69133341
-0.037556376 -0.075782262 -0.69133341
-0.032134581 -0.076049991 -0.69000006
-0.027198166 -0.076049991 -0.69000006
-0.022261757 -0.076049991 -0.69000006
-0.046791308 -0.073566079 -0.69383335
-0.042220481 -0.073322885 -0.69350004
-0.036824014 -0.073277712 -0.69308341
-0.032137848 -0.073023014 -0.69241178
-0.027269928 -0.072519593 -0.69180006
-0.022309884 -0.072488487 -0.69150001
-0.01745633 -0.072338566 -0.69131577
-0.012593704 -0.07160981 -0.69157147
-0.0076774079 -0.07086315 -0.69177783
-0.0025234043 -0.070679307 -0.69199997
0.0024249768 -0.071230844 -0.69133329
0.0073753633 -0.071282074 -0.69183338
0.012145158 -0.071328178 -0.69118184
0.017229533 -0.071095265 -0.69000006
0.02093184 -0.071095265 -0.69000006
-0.026096214 -0.068965971 -0.69350004
-0.02210639 -0.068424925 -0.69342864
-0.017413227 -0.068343036 -0.69350004
-0.012451776 -0.068343036 -0.69350004
-0.007492125 -0.067736685 -0.6936667
-0.0025984484 -0.068163015 -0.69377786
0.0021678556 -0.068453334 -0.69371432
0.0078131109 -0.068600401 -0.69400001
0.012663638 -0.06802284 -0.69341671
0.017431263 -0.067902654 -0.69255561
0.022252148 -0.067639649 -0.69270003
0.027212698 -0.067649767 -0.6928001
0.032161679 -0.06763459 -0.69265014
0.037024032 -0.067512311 -0.69273686
0.042246558 -0.067111857 -0.69252944
0.047292314 -0.066950254 -0.69200003
0.052402221 -0.066981219 -0.6919412
0.057482179 -0.066926733 -0.69174999
0.062277026 -0.066813998 -0.69186664
0.067573696 -0.066234626 -0.69192863
0.072749265 -0.06616541 -0.69145453
0.077925786 -0.065710224 -0.69200003
0.082636975 -0.06614054 -0.69000006
0.086956345 -0.066140547 -0.69000006
0.033465758 -0.064032242 -0.69400001
0.039051414 -0.064032242 -0.69400001
0.041533928 -0.064032242 -0.69400001
0.047119588 -0.064032242 -0.69400001
0.05208461 -0.063409306 -0.69400001
0.05704964 -0.063409314 -0.69400001
0.061926 -0.063498303 -0.69400001
0.067393444 -0.063616954 -0.69400001
0.072442681 -0.06311778 -0.69390917
0.077285968 -0.062755637 -0.69366682
0.082664773 -0.063187674 -0.69311118
0.088051997 -0.062824398 -0.69300002
0.09282475 -0.062633239 -0.69235003
0.097756907 -0.062619939 -0.69220006
0.10259621 -0.062179897 -0.69217646
0.10757145 -0.061948359 -0.691625
0.11228313 -0.061602294 -0.6907143
0.11736229 -0.061273288 -0.6910001
0.12236428 -0.06130226 -0.69133329
0.12763585 -0.061906449 -0.69214284
0.13233644 -0.062268879 -0.69175017
0.13713597 -0.062512815 -0.6910001
0.1422091 -0.062079825 -0.69052649
0.14703968 -0.061849494 -0.69050008
0.10359678 -0.059048794 -0.69400001
0.10835494 -0.058633506 -0.69400001
0.11282486 -0.058383327 -0.69350004
0.11782922 -0.058404598 -0.69375002
0.12277023 -0.058393959 -0.69362509
0.1278013 -0.058425866 -0.69400001
0.13239394 -0.058799621 -0.69400001
0.13799733 -0.058514856 -0.69400001
0.14261894 -0.058393959 -0.69362509
0.14785679 -0.058809817 -0.69254541
-0.047933526 -0.081209578 -0.68650007
-0.043022163 -0.081209578 -0.68650007
-0.037766889 -0.08113464 -0.68644452
-0.031948291 -0.080535129 -0.68600005
-0.027040495 -0.080535129 -0.68600005
-0.0221327 -0.080535129 -0.68600005
-0.048021257 -0.078888386 -0.68775004
-0.042746503 -0.078797296 -0.68755561
-0.037179172 -0.078350291 -0.68761551
-0.032025911 -0.078261212 -0.68766677
-0.027106194 -0.078261212 -0.68766677
-0.022186473 -0.078261212 -0.68766677
-0.017381083 -0.077482097 -0.68733341
-0.012329083 -0.076914713 -0.68666673
-0.0074140439 -0.076886706 -0.68641663
-0.0027483737 -0.076638423 -0.68640012
0.002408023 -0.07627999 -0.68650001
0.0073193945 -0.07627999 -0.68650007
0.012230766 -0.07627999 -0.68650001
0.017129652 -0.075609125 -0.68600005
0.022037446 -0.075609125 -0.68600005
0.025718294 -0.075609125 -0.68600005
0.066207595 -0.075609125 -0.68600005
-0.015429338 -0.074594468 -0.68800002
-0.011942849 -0.074182771 -0.68800008
-0.0072591943 -0.073432229 -0.68763649
-0.0025076028 -0.073323235 -0.68766677
0.0024115304 -0.073922709 -0.68750012
0.0073315003 -0.073936269 -0.68762505
0.012250474 -0.073936269 -0.68762499
0.017171269 -0.073323235 -0.68766677
0.022260975 -0.072952539 -0.68750012
0.026994344 -0.072660968 -0.68725008
0.032296579 -0.072308488 -0.68699998
0.038019858 -0.071975186 -0.68658352
0.042927288 -0.07196629 -0.68650001
0.047907893 -0.071454324 -0.68750012
0.05279794 -0.071415007 -0.68712509
0.057712663 -0.071415238 -0.68712509
0.062572323 -0.071350396 -0.68650007
0.067247778 -0.071730502 -0.68660003
0.072629914 -0.071955852 -0.68640006
0.077287674 -0.072359473 -0.68633342
0.081748948 -0.072325125 -0.68599999
0.086903833 -0.071949564 -0.68633336
0.092494383 -0.071590886 -0.68683338
0.097268909 -0.071264803 -0.68633348
0.10301606 -0.070683122 -0.68600005
0.10731038 -0.070683122 -0.68600005
0.039329052 -0.0696541 -0.68800002
0.043020632 -0.0696541 -0.68800002
0.047942735 -0.0696541 -0.68800002
0.052864838 -0.0696541 -0.68800002
0.057786938 -0.0696541 -0.68800002
0.063078202 -0.069407083 -0.68800002
0.067606121 -0.069011249 -0.68774998
0.072711468 -0.068785705 -0.68755561
0.077437818 -0.068385258 -0.68766683
0.082357533 -0.068385266 -0.68766677
0.08742249 -0.068197846 -0.6876924
0.092174292 -0.067751184 -0.68749994
0.097210951 -0.067743458 -0.68705893
0.10224421 -0.067702018 -0.68700004
0.10762066 -0.067685597 -0.68715793
0.11284053 -0.067723788 -0.68680012
0.11775045 -0.067677185 -0.68711764
0.12284836 -0.067713775 -0.68712509
0.12775241 -0.067707673 -0.68706262
0.13260764 -0.067676716 -0.68674999
0.13754606 -0.067689143 -0.68687505
0.14232829 -0.067267127 -0.68692303
0.14713363 -0.066829316 -0.68690014
0.10270113 -0.064713739 -0.68800008
0.10700797 -0.064713739 -0.68800002
0.11213516 -0.064302042 -0.68800008
0.11746743 -0.06409619 -0.68800014
0.12296011 -0.064072683 -0.68775004
0.12755775 -0.063725673 -0.68800002
0.13223375 -0.063478649 -0.68800008
0.14269321 -0.064713739 -0.68800002
0.14776914 -0.063787423 -0.68800008
-0.047642604 -0.086228669 -0.68233341
-0.042623308 -0.086423546 -0.68238473
-0.037885431 -0.086854123 -0.6824376
-0.033598989 -0.086379834 -0.68214297
-0.047724068 -0.083309613 -0.68350005
-0.042834159 -0.083309613 -0.68349999
-0.037944246 -0.083309613 -0.68350005
-0.032898866 -0.083100334 -0.68280005
-0.027502803 -0.083156146 -0.68225002
-0.022011714 -0.083156131 -0.68225002
-0.017133573 -0.082555346 -0.6823501
-0.012249781 -0.08223743 -0.68225008
-0.0073704356 -0.082561478 -0.68239999
-0.002488398 -0.082561493 -0.68240011
0.002393605 -0.081953704 -0.68243748
0.007272413 -0.080692366 -0.68212509
0.012150593 -0.081289858 -0.6820001
0.016419873 -0.080677703 -0.6820001
0.022980841 -0.080539562 -0.68212509
0.028022984 -0.080722392 -0.68237507
0.033310365 -0.080920883 -0.68233341
0.03777967 -0.080707043 -0.68225008
0.042645451 -0.080677696 -0.6820001
0.047158688 -0.080310397 -0.6820001
0.050574113 -0.080065534 -0.68200004
0.06094237 -0.080065534 -0.68200004
-0.015339633 -0.079072423 -0.68400002
-0.012281204 -0.079072423 -0.68400002
-0.0073877177 -0.079072423 -0.68400002
-0.0020864417 -0.078663118 -0.68400002
0.0023984797 -0.078444012 -0.68387502
0.0072857412 -0.078386441 -0.68337506
0.012168408 -0.078343756 -0.68300003
0.017063065 -0.077768043 -0.6833334
0.022377353 -0.077817261 -0.68300003
0.027987594 -0.077235714 -0.683375
0.032923266 -0.077088729 -0.68274993
0.037800658 -0.07707452 -0.68262494
0.042692348 -0.077089198 -0.68274993
0.047550425 -0.077046514 -0.68237501
0.052432287 -0.077046737 -0.68237507
0.057325538 -0.077060744 -0.68250006
0.062247559 -0.077110082 -0.68293744
0.067286067 -0.077346846 -0.68271434
0.072329655 -0.077214636 -0.68266672
0.077653147 -0.077066921 -0.68288231
0.082661688 -0.076583266 -0.68292862
0.087588556 -0.075996719 -0.6821112
0.092657022 -0.075780421 -0.6820001
0.097607702 -0.075835526 -0.68250006
0.10249045 -0.075835519 -0.68250006
0.10668465 -0.075474337 -0.68200004
0.1188826 -0.075168252 -0.68200004
0.12281304 -0.075712405 -0.6820001
0.12762445 -0.075576365 -0.6820001
0.13230035 -0.075168252 -0.68200004
0.033595227 -0.074160777 -0.68400002
0.037877027 -0.074160777 -0.68400002
0.042770512 -0.074160777 -0.68400002
0.04763753 -0.073506162 -0.68362504
0.052489914 -0.073452622 -0.68312508
0.057398811 -0.07347928 -0.68337506
0.062298883 -0.073492609 -0.68350005
0.067580201 -0.073679201 -0.6833334
0.071689084 -0.073306039 -0.68366671
0.077024914 -0.072932869 -0.68400002
0.083753459 -0.072932877 -0.68400002
0.08858259 -0.072878666 -0.68350005
0.092588693 -0.073097907 -0.68300009
0.097930379 -0.073270299 -0.6833334
0.10261559 -0.072861195 -0.68333334
0.10758024 -0.072628446 -0.68292314
0.11229709 -0.072185174 -0.68274999
0.11718163 -0.072185174 -0.68275005
0.12211087 -0.072211839 -0.68300009
0.12719829 -0.072332844 -0.68311757
0.13246128 -0.072194226 -0.68283343
0.13776384 -0.072078653 -0.68276477
0.14260809 -0.071723424 -0.68238467
0.14761989 -0.071529642 -0.68233341
0.14308697 -0.069249138 -0.68400002
0.14811897 -0.068665043 -0.68342865
-0.047391664 -0.092116326 -0.67700005
-0.042415917 -0.091608539 -0.67683339
-0.037593104 -0.091653042 -0.6771667
-0.03272007 -0.091574989 -0.67658341
-0.027875986 -0.090956636 -0.67650008
-0.02338185 -0.090525798 -0.67600006
-0.018787412 -0.090283081 -0.67600006
-0.00065146532 -0.090283081 -0.67600006
0.0011621292 -0.090283081 -0.67600006
-0.047462672 -0.088953264 -0.67974997
-0.042848192 -0.089016937 -0.67957145
-0.037736736 -0.089563631 -0.67974997
-0.03262249 -0.088567279 -0.67959994
-0.027979001 -0.087634161 -0.67900002
-0.022496371 -0.087563142 -0.67844993
-0.017024035 -0.087504193 -0.67799991
-0.012158098 -0.087392062 -0.67712504
-0.0073212278 -0.087488189 -0.67787504
-0.0024705727 -0.087415971 -0.67731249
0.0023741408 -0.08737649 -0.67700005
0.0072127753 -0.087312855 -0.67650008
0.011881154 -0.087061889 -0.67657149
0.017497916 -0.086710185 -0.67653334
0.022772722 -0.086578071 -0.67636371
0.027782047 -0.08609885 -0.67650008
0.032621879 -0.08609885 -0.67650008
0.037461706 -0.08609885 -0.67650008
0.042301539 -0.08609885 -0.67650008
0.047029737 -0.085967034 -0.67614293
0.051942773 -0.085428886 -0.67600006
-0.012209384 -0.08349292 -0.68000001
0.0023836752 -0.084682509 -0.67974997
0.0072465385 -0.083451405 -0.67966664
0.012106054 -0.084040999 -0.67949998
0.017417155 -0.083125867 -0.67966676
0.022352863 -0.083026126 -0.67931247
0.027856745 -0.083286487 -0.67833328
0.032711033 -0.083286792 -0.6783334
0.037535094 -0.083225697 -0.67783332
0.042416178 -0.083287083 -0.67833328
0.047376808 -0.082774483 -0.67813337
0.052405994 -0.082731001 -0.67766672
0.057610057 -0.082479045 -0.67699999
0.062404059 -0.0815548 -0.67681819
0.067710638 -0.081241071 -0.67650008
0.072550468 -0.081241064 -0.67650008
0.077371225 -0.081827983 -0.67633343
0.082008064 -0.081423461 -0.67633343
0.086602584 -0.080979213 -0.67600006
0.092446387 -0.080574691 -0.67600006
0.097887166 -0.080574691 -0.67600006
0.1024217 -0.081058674 -0.67666674
0.10759923 -0.080604494 -0.6762501
0.11239593 -0.080574691 -0.67600006
0.11723217 -0.080574691 -0.67600006
0.12206843 -0.080574691 -0.67600006
0.12750922 -0.080574691 -0.67600006
0.13174093 -0.080574691 -0.67600006
0.030966328 -0.079830736 -0.68000001
0.052858241 -0.079830736 -0.68000001
0.056912296 -0.079830736 -0.68000001
0.063741043 -0.079752475 -0.67933339
0.067960858 -0.079713337 -0.67900002
0.072818577 -0.079713337 -0.67900002
0.077790685 -0.079830736 -0.68000001
0.082828201 -0.079223715 -0.67928576
0.087475181 -0.078529865 -0.67836362
0.092314534 -0.078443676 -0.67776924
0.097404182 -0.07840576 -0.67825001
0.10231844 -0.078454085 -0.67866671
0.10758441 -0.07780014 -0.67827779
0.11264566 -0.077710733 -0.67750001
0.11759003 -0.077774428 -0.67806256
0.12254997 -0.078454085 -0.67866671
0.12753358 -0.078078292 -0.67842859
0.13253583 -0.077821463 -0.67763156
0.13783516 -0.077559769 -0.67711765
0.14272769 -0.076990351 -0.67650008
0.14753145 -0.076971382 -0.67633343
0.10758801 -0.074947819 -0.68000001
0.11245288 -0.074947827 -0.68000001
0.11670964 -0.074947819 -0.68000001
0.13434479 -0.074947819 -0.68000001
0.13738534 -0.074947819 -0.68000001
0.14262062 -0.074366048 -0.67887497
0.14739598 -0.074172117 -0.6785
-0.048651457 -0.10045646 -0.671
-0.047391627 -0.097676553 -0.6719473
-0.042105962 -0.097570859 -0.671875
-0.037410349 -0.097083032 -0.67138463
-0.032849874 -0.096039698 -0.671
-0.027249312 -0.096039698 -0.671
-0.022848871 -0.096240453 -0.671
-0.017848371 -0.095838927 -0.671
-0.012047788 -0.095638171 -0.671
-0.0072473073 -0.095638171 -0.671
-0.002446827 -0.095638171 -0.671
0.0011535336 -0.095638171 -0.671
-0.046768386 -0.094754189 -0.67500001
-0.042301472 -0.094390661 -0.67500007
-0.037416857 -0.094249934 -0.67400008
-0.032553829 -0.094127692 -0.67312509
-0.027731171 -0.093504831 -0.67300004
-0.022808377 -0.093067206 -0.67333341
-0.01732792 -0.092581578 -0.67268181
-0.012080109 -0.092268072 -0.6728
-0.0072718831 -0.092336833 -0.67330009
-0.0025505826 -0.092466205 -0.67331588
0.0024932364 -0.092533946 -0.67277783
0.0071699484 -0.092226759 -0.67250007
0.012377174 -0.091795191 -0.67227781
0.018098602 -0.092624307 -0.67186666
0.022787323 -0.092754968 -0.67193747
0.027378676 -0.091698326 -0.67155558
0.032716699 -0.091060795 -0.671
0.037157144 -0.09142217 -0.671
0.042557683 -0.090819888 -0.671
0.047958221 -0.09081988 -0.671
0.052158646 -0.09081988 -0.671
0.055759005 -0.09081988 -0.671
0.013815399 -0.089410096 -0.67400002
0.017703114 -0.089357615 -0.67411119
0.023062417 -0.089222975 -0.67411119
0.027652003 -0.08871638 -0.67333341
0.032469176 -0.08871638 -0.67333335
0.037286352 -0.08871638 -0.67333341
0.042103525 -0.08871638 -0.67333341
0.047467437 -0.088464119 -0.67256248
0.05283092 -0.087769628 -0.67277783
0.057674408 -0.087378666 -0.67234987
0.062128611 -0.087435141 -0.67153335
0.06747257 -0.087430716 -0.67164701
0.072231889 -0.08711911 -0.67166668
0.077561192 -0.086403117 -0.671
0.082761712 -0.08600159 -0.671
0.08781936 -0.086517841 -0.67100006
0.092276953 -0.086517841 -0.67100006
0.097163156 -0.08600159 -0.671
0.10256369 -0.08600159 -0.671
0.10796423 -0.08600159 -0.671
0.11096454 -0.08600159 -0.671
0.06306497 -0.084043659 -0.67355555
0.06718 -0.083672926 -0.67360014
0.072363466 -0.083453745 -0.67475009
0.077556454 -0.084407412 -0.67270005
0.082986936 -0.083819643 -0.67283338
0.087926514 -0.083339818 -0.6728667
0.092637964 -0.083235279 -0.67299998
0.097452767 -0.083235271 -0.67300004
0.10239659 -0.08345928 -0.67271435
0.10739852 -0.083355822 -0.67288893
0.11263525 -0.0830056 -0.6722222
0.11769661 -0.083081357 -0.67175007
0.12250245 -0.083081357 -0.67175007
0.127086 -0.082610428 -0.67130768
0.13258076 -0.08171092 -0.67153847
0.1378056 -0.08132267 -0.67216671
0.14271608 -0.081191644 -0.67184621
0.14771482 -0.081262767 -0.67166662
0.14241152 -0.079243749 -0.67500001
0.14724062 -0.079243749 -0.67500001
-0.047709312 -0.10224205 -0.66815394
-0.042579047 -0.10169265 -0.66789478
-0.037373137 -0.10140627 -0.6670714
-0.032256395 -0.1010538 -0.667
-0.027715236 -0.10126311 -0.66679996
-0.022941668 -0.10124796 -0.66670007
-0.018271256 -0.10114261 -0.66600001
-0.012553604 -0.1009035 -0.66600001
-0.008384482 -0.1009035 -0.66600001
-0.036595635 -0.099103972 -0.67000002
-0.032143176 -0.098082595 -0.66960007
-0.027560964 -0.098329127 -0.66883337
-0.022528553 -0.098655261 -0.66860008
-0.017680384 -0.098270334 -0.66843754
-0.012463178 -0.098285653 -0.66789466
-0.0072137788 -0.098187581 -0.66787505
-0.0024349759 -0.098168865 -0.66775
0.0024737797 -0.097798988 -0.66750002
0.0070124972 -0.097122692 -0.66758829
0.012481974 -0.096877232 -0.66710001
0.017863048 -0.097274341 -0.66755563
0.02263198 -0.096916012 -0.66737509
0.027377777 -0.096216582 -0.66666663
0.032131627 -0.09616863 -0.66633332
0.0375055 -0.096197493 -0.66653329
0.042836152 -0.09612111 -0.66600001
0.045814093 -0.09612111 -0.66600001
0.012535966 -0.094292872 -0.67000002
0.016130961 -0.094292864 -0.67000002
0.027735934 -0.093656763 -0.6691429
0.032109961 -0.093097068 -0.66927278
0.03760384 -0.093453296 -0.66830009
0.042780992 -0.09328647 -0.66788244
0.047712702 -0.09334787 -0.66756248
0.052586354 -0.093158938 -0.66747051
0.057342079 -0.092847489 -0.66736847
0.062303942 -0.09254951 -0.66690922
0.067765228 -0.09195108 -0.6668824
0.072737917 -0.09209013 -0.66712505
0.077323154 -0.091889627 -0.66653329
0.081968181 -0.091167465 -0.66650003
0.087298602 -0.090867519 -0.66644442
0.092611693 -0.090749703 -0.66655558
0.097233258 -0.090541676 -0.66600001
0.10239503 -0.090143129 -0.66600001
0.10743836 -0.09067487 -0.66614282
0.11205704 -0.090523399 -0.66628575
0.11728474 -0.090143129 -0.66600001
